ply
format ascii 1.0
element vertex 1204
property float x
property float y
property float z
property uchar red
property uchar green
property uchar blue
end_header
-0.372271 0.739442 2.756599 98 132 117
-0.367992 0.741096 2.762764 98 132 117
-0.363520 0.742400 2.767626 98 132 117
-0.358974 0.743590 2.772061 99 131 117
-0.354933 0.745873 2.780573 100 132 118
-0.350121 0.746581 2.783212 100 132 118
-0.345751 0.748266 2.789496 100 132 118
-0.341361 0.749960 2.795808 97 133 117
-0.336913 0.751575 2.801831 97 133 117
-0.332516 0.753357 2.808473 97 133 117
-0.327805 0.754472 2.812628 97 133 117
-0.323554 0.756699 2.820930 98 132 117
-0.318954 0.758170 2.826415 98 132 117
-0.314584 0.760245 2.834149 95 133 119
-0.310067 0.762030 2.840805 94 132 118
-0.305514 0.763786 2.847352 93 133 118
-0.300985 0.765664 2.854353 92 132 117
-0.296689 0.768212 2.863851 92 132 117
-0.292213 0.770380 2.871935 91 131 116
-0.287569 0.772175 2.878626 91 131 116
-0.283375 0.775272 2.890169 91 131 116
-0.279148 0.778393 2.901805 91 131 116
-0.274424 0.780225 2.908637 91 131 116
-0.270257 0.783744 2.921754 88 132 116
-0.266259 0.787910 2.937284 89 133 117
-0.261870 0.791066 2.949052 87 136 116
-0.257490 0.794385 2.961422 88 137 117
-0.253487 0.799036 2.978761 87 140 119
-0.974966 0.790806 2.927887 65 132 101
-0.965773 0.787726 2.916483 61 128 97
-0.957070 0.785012 2.906438 72 119 95
-0.947316 0.781402 2.893069 72 119 95
-0.940093 0.779849 2.887323 72 122 99
-0.932106 0.777643 2.879153 75 125 102
-0.924349 0.775603 2.871601 81 125 104
-0.916329 0.773318 2.863140 85 129 108
-0.908356 0.771046 2.854730 94 127 110
-0.899556 0.768042 2.843607 93 126 109
-0.891803 0.765902 2.835682 95 124 108
-0.884962 0.764523 2.830578 96 125 109
-0.877285 0.762402 2.822726 98 122 108
-0.868519 0.759304 2.811256 98 122 108
-0.862898 0.758934 2.809886 99 119 106
-0.856726 0.758072 2.806695 95 115 102
-0.850526 0.757176 2.803375 93 111 99
-0.844970 0.756844 2.802148 91 109 97
-0.838930 0.756073 2.799291 81 111 95
-0.832848 0.755254 2.796260 74 104 88
-0.826740 0.754400 2.793099 66 110 89
-0.821573 0.754400 2.793099 70 114 93
-0.815484 0.753548 2.789946 72 119 97
-0.762392 0.747042 2.765856 67 116 96
-0.755765 0.745552 2.760339 72 117 96
-0.749880 0.744779 2.757478 74 119 98
-0.743594 0.743594 2.753089 77 120 102
-0.738501 0.743594 2.753089 77 120 102
-0.732556 0.742731 2.749895 78 122 101
-0.726753 0.742000 2.747187 82 126 105
-0.720927 0.741234 2.744354 82 126 105
-0.714954 0.740307 2.740919 82 126 105
-0.709096 0.739486 2.737882 88 128 111
-0.703352 0.738773 2.735240 91 131 114
-0.697300 0.737723 2.731354 98 132 117
-0.690470 0.735829 2.724342 100 134 119
-0.685031 0.735401 2.722755 104 136 122
-0.678403 0.733680 2.716384 106 138 124
-0.672100 0.732288 2.711232 105 139 124
-0.666771 0.731944 2.709958 106 140 125
-0.660754 0.730834 2.705846 108 140 126
-0.654908 0.729897 2.702380 109 141 127
-0.649199 0.729100 2.699428 108 142 127
-0.643692 0.728520 2.697281 109 143 128
-0.637708 0.727386 2.693081 115 148 131
-0.631772 0.726289 2.689020 118 151 134
-0.626564 0.726018 2.688018 121 155 140
-0.620916 0.725229 2.685097 125 159 144
-0.615194 0.724341 2.681808 129 163 148
-0.610091 0.724173 2.681185 132 166 151
-0.604990 0.724004 2.680561 135 163 150
-0.599297 0.723119 2.677284 134 162 149
-0.593701 0.722336 2.674386 134 162 151
-0.588563 0.722102 2.673518 132 160 149
-0.583346 0.721767 2.672279 132 160 147
-0.578403 0.721767 2.672279 132 160 147
-0.572840 0.720988 2.669393 130 159 146
-0.567638 0.720654 2.668157 130 159 146
-0.562642 0.720576 2.667869 131 159 146
-0.557165 0.719877 2.665279 131 159 146
-0.552234 0.719877 2.665279 129 158 145
-0.547303 0.719877 2.665279 127 156 143
-0.542373 0.719877 2.665279 127 155 142
-0.537194 0.719544 2.664048 128 156 143
-0.532266 0.719544 2.664048 126 155 142
-0.527556 0.719844 2.665156 126 155 142
-0.522650 0.719877 2.665279 126 155 142
-0.517720 0.719877 2.665279 124 153 140
-0.512789 0.719877 2.665279 125 153 140
-0.507858 0.719877 2.665279 125 153 140
-0.502928 0.719877 2.665279 124 152 139
-0.497997 0.719877 2.665279 124 152 139
-0.493439 0.720421 2.667293 123 152 139
-0.488889 0.720988 2.669393 122 151 138
-0.483951 0.720988 2.669393 122 150 137
-0.479730 0.722069 2.673394 122 150 137
-0.474807 0.722102 2.673518 121 149 136
-0.470370 0.722884 2.676414 120 148 135
-0.465635 0.723220 2.677657 117 149 135
-0.461288 0.724173 2.681185 116 148 134
-0.456880 0.725049 2.684430 117 146 133
-0.452174 0.725466 2.685973 116 145 132
-0.447838 0.726492 2.689773 116 144 131
-0.443427 0.727420 2.693207 114 142 129
-0.438629 0.727726 2.694340 113 141 130
-0.434071 0.728441 2.696986 111 139 128
-0.429329 0.728861 2.698543 109 139 123
-0.424662 0.729419 2.700608 108 138 122
-0.420000 0.730000 2.702760 108 137 121
-0.415649 0.731142 2.706990 107 136 120
-0.411266 0.732254 2.711105 106 135 119
-0.406270 0.732288 2.711232 106 135 119
-0.402193 0.734003 2.717579 104 133 120
-0.398154 0.735829 2.724342 104 133 120
-0.393908 0.737316 2.729845 102 134 120
-0.389258 0.738073 2.732648 100 132 118
-0.384993 0.739592 2.738272 100 132 118
-0.380644 0.740987 2.743440 100 132 118
-0.376309 0.742448 2.748846 102 131 118
-0.371679 0.743357 2.752213 102 131 118
-0.367447 0.745100 2.758666 100 132 118
-0.363061 0.746576 2.764132 100 132 118
-0.358681 0.748107 2.769798 99 133 118
-0.354414 0.749920 2.776511 100 134 119
-0.349558 0.750522 2.778741 101 133 119
-0.345250 0.752335 2.785453 101 133 119
-0.340761 0.753804 2.790891 103 132 119
-0.336406 0.755620 2.797616 102 131 118
-0.331966 0.757298 2.803829 101 133 119
-0.327459 0.758873 2.809658 101 133 119
-0.323074 0.760788 2.816750 101 133 119
-0.318434 0.762153 2.821805 99 131 117
-0.314085 0.764273 2.829652 98 132 117
-0.309559 0.766027 2.836148 99 133 118
-0.305012 0.767790 2.842673 96 132 118
-0.300806 0.770487 2.852658 97 133 119
-0.296301 0.772500 2.860111 93 131 117
-0.291729 0.774408 2.867175 94 132 118
-0.287091 0.776209 2.873844 94 132 118
-0.282902 0.779316 2.885348 93 131 117
-0.278680 0.782449 2.896946 93 131 117
-0.274424 0.785606 2.908637 93 131 117
-0.270133 0.788789 2.920423 92 130 116
-0.265808 0.791999 2.932305 92 130 116
-0.261447 0.795234 2.944283 90 134 118
-0.257081 0.798592 2.956714 91 135 119
-0.253396 0.804255 2.977684 92 138 119
-0.973466 0.794997 2.923384 72 139 108
-0.964148 0.791786 2.911574 65 132 101
-0.955304 0.788931 2.901076 76 123 99
-0.945734 0.785440 2.888239 75 122 98
-0.938198 0.783608 2.881503 73 123 100
-0.930233 0.781395 2.873366 75 125 102
-0.921702 0.778679 2.863377 81 125 104
-0.913531 0.776238 2.854400 84 128 107
-0.905412 0.773811 2.845478 92 125 108
-0.897343 0.771400 2.836612 91 124 107
-0.889107 0.768816 2.827108 95 124 108
-0.882075 0.767248 2.821344 98 127 111
-0.874146 0.764878 2.812628 103 127 113
-0.864795 0.761227 2.799201 105 129 115
-0.858644 0.760365 2.796034 108 128 115
-0.852989 0.759935 2.794453 105 125 112
-0.847066 0.759261 2.791972 100 118 106
-0.840951 0.758404 2.788821 94 112 100
-0.835455 0.758098 2.787697 84 114 98
-0.828562 0.756513 2.781869 79 109 93
-0.822688 0.755845 2.779411 68 112 91
-0.817284 0.755602 2.778518 70 114 93
-0.810906 0.754451 2.774284 72 119 97
-0.805774 0.754451 2.774284 73 120 98
-0.800000 0.753846 2.772061 74 118 97
-0.794235 0.753243 2.769842 74 118 97
-0.787850 0.752038 2.765414 72 116 98
-0.782421 0.751738 2.764309 74 118 100
-0.776377 0.750838 2.761000 75 119 101
-0.769856 0.749462 2.755941 74 118 100
-0.763723 0.748449 2.752213 71 120 100
-0.758511 0.748330 2.751776 70 119 99
-0.751746 0.746667 2.745661 74 119 98
-0.744952 0.744952 2.739356 76 121 100
-0.739826 0.744893 2.739139 79 122 104
-0.734759 0.744893 2.739139 81 124 106
-0.729056 0.744245 2.736755 87 131 110
-0.723478 0.743715 2.734808 93 137 116
-0.717285 0.742541 2.730491 93 137 116
-0.711672 0.741956 2.728338 94 138 117
-0.705679 0.740963 2.724685 98 138 121
-0.700362 0.740671 2.723613 99 139 122
-0.694067 0.739332 2.718690 103 137 122
-0.687740 0.737940 2.713572 103 137 122
-0.681971 0.737131 2.710595 105 137 123
-0.676056 0.736150 2.706990 106 138 124
-0.669948 0.734943 2.702549 107 141 126
-0.663963 0.733853 2.698543 109 143 128
-0.657995 0.732767 2.694550 110 142 128
-0.652451 0.732140 2.692243 111 143 129
-0.646967 0.731571 2.690150 112 146 131
-0.640994 0.730435 2.685973 117 151 136
-0.635531 0.729868 2.683889 124 157 140
-0.630078 0.729302 2.681808 128 161 144
-0.624487 0.728568 2.679108 131 165 150
-0.619195 0.728173 2.677657 134 168 153
-0.613292 0.727048 2.673518 136 170 155
-0.608111 0.726767 2.672486 135 169 154
-0.602934 0.726487 2.671454 137 165 152
-0.597393 0.725758 2.668775 135 163 150
-0.592136 0.725366 2.667334 134 162 151
-0.586749 0.724807 2.665279 132 160 149
-0.581818 0.724807 2.665279 132 160 147
-0.576887 0.724807 2.665279 132 160 147
-0.571517 0.724249 2.663228 130 159 146
-0.566154 0.723692 2.661179 130 159 146
-0.561188 0.723637 2.660974 130 158 145
-0.556308 0.723692 2.661179 130 158 145
-0.551003 0.723192 2.659338 127 156 143
-0.546462 0.723692 2.661179 126 155 142
-0.541122 0.723136 2.659133 127 155 142
-0.535791 0.722581 2.657091 126 154 141
-0.531692 0.723692 2.661179 124 153 140
-0.526405 0.723192 2.659338 125 154 141
-0.521846 0.723692 2.661179 124 153 140
-0.516923 0.723692 2.661179 124 153 140
-0.512000 0.723692 2.661179 125 153 140
-0.507077 0.723692 2.661179 124 152 139
-0.502154 0.723692 2.661179 123 151 138
-0.497767 0.724473 2.664048 123 151 138
-0.493066 0.724807 2.665279 122 151 138
-0.488136 0.724807 2.665279 121 150 137
-0.483764 0.725646 2.668363 122 150 137
-0.479012 0.725926 2.669393 121 149 136
-0.474184 0.726094 2.670011 121 149 136
-0.469643 0.726711 2.672279 120 148 135
-0.464915 0.727048 2.673518 117 149 135
-0.460681 0.728173 2.677657 116 148 134
-0.456045 0.728681 2.679523 117 146 133
-0.451473 0.729302 2.681808 117 146 133
-0.447101 0.730265 2.685347 116 144 131
-0.442614 0.731059 2.688268 115 143 130
-0.437947 0.731571 2.690150 115 143 132
-0.433274 0.732083 2.692034 112 140 129
-0.428660 0.732710 2.694340 110 140 124
-0.424337 0.733853 2.698543 110 140 124
-0.419410 0.733968 2.698964 109 138 122
-0.415162 0.735287 2.703816 108 137 121
-0.410642 0.736150 2.706990 107 136 120
-0.405824 0.736496 2.708261 106 135 119
-0.401695 0.738114 2.714211 105 134 121
-0.397516 0.739681 2.719972 104 133 120
-0.393226 0.741079 2.725114 102 134 120
-0.388920 0.742483 2.730276 101 133 119
-0.384384 0.743480 2.733944 101 133 119
-0.379957 0.744716 2.738489 101 133 119
-0.375605 0.746134 2.743701 103 132 119
-0.371383 0.747854 2.750026 103 132 119
-0.366850 0.748985 2.754185 102 134 120
-0.362447 0.750419 2.759458 102 134 120
-0.358028 0.751858 2.764751 101 135 120
-0.353591 0.753303 2.770064 101 135 120
-0.349278 0.755056 2.776511 102 134 120
-0.344667 0.756209 2.780751 102 134 120
-0.340453 0.758282 2.788372 104 133 120
-0.336026 0.759935 2.794453 105 134 121
-0.331445 0.761288 2.799428 103 135 121
-0.327007 0.763017 2.805785 102 134 120
-0.322549 0.764754 2.812171 101 133 119
-0.317993 0.766311 2.817897 101 133 119
-0.313572 0.768251 2.825031 99 133 118
-0.309280 0.770579 2.833592 99 133 118
-0.304887 0.772731 2.841505 98 134 120
-0.300445 0.774831 2.849228 97 133 119
-0.295856 0.776622 2.855814 95 133 119
-0.291318 0.778615 2.863141 94 132 118
-0.287067 0.781460 2.873605 94 132 118
-0.282902 0.784654 2.885348 94 132 118
-0.278680 0.787808 2.896946 94 132 118
-0.274424 0.790987 2.908637 93 131 117
-0.269906 0.793522 2.917959 92 130 116
-0.265808 0.797423 2.932305 92 130 116
-0.261447 0.800681 2.944283 88 132 116
-0.257050 0.803965 2.956360 90 134 118
-0.253051 0.808664 2.973640 90 136 117
-0.249006 0.813419 2.991123 91 137 118
-0.962527 0.795833 2.906682 62 137 104
-0.953306 0.792636 2.895006 75 125 102
-0.944047 0.789373 2.883088 75 125 102
-0.935548 0.786711 2.873365 75 125 102
-0.927936 0.784769 2.866271 76 126 103
-0.920178 0.782681 2.858645 85 124 103
-0.911501 0.779781 2.848055 86 125 104
-0.902887 0.776903 2.837543 97 123 108
-0.895142 0.774742 2.829652 98 124 109
-0.886730 0.771977 2.819551 100 124 110
-0.879250 0.769994 2.812308 102 126 112
-0.871030 0.767336 2.802602 109 129 116
-0.861977 0.763908 2.790081 112 132 119
-0.855808 0.763009 2.786799 118 133 122
-0.850365 0.762751 2.785856 120 135 124
-0.844096 0.761745 2.782182 119 131 121
-0.838114 0.760987 2.779411 115 127 117
-0.832143 0.760229 2.776645 115 127 117
-0.825919 0.759230 2.772994 113 125 115
-0.819869 0.758379 2.769886 102 120 108
-0.813989 0.757675 2.767316 102 120 108
-0.808055 0.756912 2.764529 100 123 109
-0.801787 0.755825 2.760559 97 120 106
-0.796553 0.755704 2.760118 91 117 102
-0.791182 0.755451 2.759194 87 113 98
-0.785051 0.754464 2.755589 80 113 96
-0.779184 0.753720 2.752870 83 116 99
-0.773328 0.752977 2.750157 83 119 103
-0.766984 0.751746 2.745660 85 121 105
-0.761059 0.750912 2.742613 88 123 105
-0.755542 0.750471 2.741005 86 121 103
-0.749130 0.749130 2.736106 82 120 104
-0.742307 0.747357 2.729629 84 122 106
-0.737257 0.747357 2.729629 89 128 109
-0.731965 0.747109 2.728725 94 133 114
-0.726734 0.746921 2.728037 100 137 118
-0.720800 0.746003 2.724685 102 139 120
-0.714881 0.745087 2.721341 100 138 122
-0.709434 0.744654 2.719758 100 138 122
-0.703860 0.744081 2.717664 103 139 123
-0.698196 0.743403 2.715190 104 140 124
-0.691783 0.741913 2.709745 104 138 123
-0.686104 0.741193 2.707117 105 139 124
-0.680223 0.740243 2.703647 107 141 126
-0.674484 0.739434 2.700692 109 143 128
-0.668194 0.738005 2.695473 111 143 129
-0.662206 0.736891 2.691405 112 144 130
-0.656278 0.735826 2.687516 113 147 132
-0.651144 0.735644 2.686848 115 149 134
-0.645261 0.734605 2.683056 118 150 136
-0.640000 0.734264 2.681808 122 154 140
-0.634203 0.733297 2.678278 127 159 145
-0.628421 0.732333 2.674758 133 165 151
-0.622982 0.731756 2.672651 135 169 154
-0.617570 0.731203 2.670629 136 170 155
-0.612280 0.730785 2.669104 136 170 155
-0.606752 0.730076 2.666512 135 169 154
-0.601541 0.729738 2.665279 137 166 153
-0.596417 0.729502 2.664417 134 163 150
-0.590851 0.728716 2.661547 132 160 147
-0.585846 0.728615 2.661179 132 160 147
-0.580923 0.728615 2.661179 131 160 147
-0.575442 0.727910 2.658602 131 160 147
-0.570814 0.728279 2.659951 127 159 145
-0.565362 0.727597 2.657458 126 158 144
-0.560369 0.727496 2.657091 128 157 144
-0.555453 0.727496 2.657091 126 155 142
-0.550538 0.727496 2.657091 124 156 142
-0.545622 0.727496 2.657091 122 154 140
-0.540707 0.727496 2.657091 121 153 139
-0.535791 0.727496 2.657091 122 154 140
-0.530876 0.727496 2.657091 121 153 139
-0.525960 0.727496 2.657091 120 152 138
-0.521045 0.727496 2.657091 120 152 138
-0.516129 0.727496 2.657091 120 152 138
-0.511449 0.727832 2.658316 121 150 137
-0.507077 0.728615 2.661179 121 150 137
-0.502154 0.728615 2.661179 121 150 137
-0.497231 0.728615 2.661179 121 150 137
-0.492308 0.728615 2.661179 118 150 136
-0.487662 0.729030 2.662694 118 150 136
-0.483205 0.729738 2.665279 118 150 136
-0.478473 0.730042 2.666389 118 150 136
-0.473716 0.730312 2.667376 119 148 135
-0.469136 0.730864 2.669393 119 148 135
-0.464463 0.731282 2.670918 118 147 134
-0.459969 0.731994 2.673518 117 146 133
-0.455678 0.733048 2.677367 115 147 133
-0.450837 0.733229 2.678030 115 147 133
-0.446512 0.734264 2.681808 114 146 132
-0.441804 0.734685 2.683347 113 145 131
-0.437267 0.735404 2.685973 114 143 130
-0.432923 0.736467 2.689857 112 141 128
-0.428194 0.736891 2.691405 111 141 125
-0.423676 0.737695 2.694340 110 140 124
-0.419345 0.738846 2.698543 107 140 123
-0.414450 0.739018 2.699175 106 139 122
-0.410173 0.740312 2.703900 109 138 122
-0.405634 0.741158 2.706990 108 137 121
-0.401122 0.742076 2.710340 107 136 123
-0.396879 0.743520 2.715616 106 135 122
-0.392762 0.745240 2.721898 105 134 121
-0.388197 0.746144 2.725200 106 135 122
-0.383960 0.747711 2.730922 104 136 122
-0.379621 0.749118 2.736063 105 137 123
-0.375277 0.750555 2.741310 104 136 122
-0.370882 0.751925 2.746315 104 136 122
-0.366453 0.753264 2.751206 107 136 123
-0.362078 0.754753 2.756644 106 135 122
-0.357656 0.756187 2.761881 103 135 121
-0.353297 0.757796 2.767759 104 136 122
-0.348522 0.758549 2.770507 103 137 122
-0.344290 0.760522 2.777714 102 136 121
-0.340097 0.762641 2.785453 103 135 121
-0.335598 0.764130 2.790891 103 135 121
-0.331054 0.765563 2.796124 105 134 121
-0.326557 0.767150 2.801921 104 133 120
-0.322078 0.768831 2.808062 103 132 119
-0.317553 0.770457 2.814001 103 132 119
-0.313061 0.772216 2.820425 100 132 118
-0.309052 0.775250 2.831505 100 132 118
-0.304512 0.777030 2.838009 99 133 120
-0.299965 0.778858 2.844683 98 132 119
-0.295471 0.780887 2.852093 96 132 118
-0.291010 0.783082 2.860111 96 132 118
-0.286615 0.785537 2.869077 95 131 117
-0.282502 0.788873 2.881263 96 132 118
-0.278214 0.791841 2.892102 95 131 117
-0.273963 0.795031 2.903754 95 131 117
-0.269678 0.798247 2.915500 92 130 116
-0.265479 0.801856 2.928680 92 130 116
-0.261069 0.804963 2.940029 91 131 116
-0.256625 0.808095 2.951467 91 131 116
-0.252747 0.813187 2.970066 91 131 114
-0.248576 0.817538 2.985959 91 131 114
-0.960913 0.799866 2.901805 68 143 110
-0.951713 0.796658 2.890169 78 128 105
-0.941161 0.792277 2.874273 78 128 105
-0.933579 0.790359 2.867317 78 128 105
-0.926079 0.788490 2.860536 78 128 105
-0.917162 0.785386 2.849275 84 123 102
-0.909181 0.783051 2.840805 85 124 103
-0.901098 0.780603 2.831922 96 122 107
-0.892368 0.777560 2.820884 97 123 108
-0.884596 0.775322 2.812765 101 125 111
-0.876499 0.772771 2.803511 104 128 114
-0.867937 0.769777 2.792648 109 129 116
-0.859302 0.766683 2.781422 114 134 121
-0.852785 0.765452 2.776957 122 137 126
-0.846289 0.764225 2.772505 125 140 129
-0.841026 0.764103 2.772061 129 141 131
-0.834694 0.763002 2.768069 131 143 133
-0.829453 0.762892 2.767670 130 142 132
-0.822740 0.761418 2.762322 130 142 132
-0.816717 0.760568 2.759238 125 143 131
-0.810320 0.759357 2.754843 123 141 129
-0.804007 0.758209 2.750682 118 141 127
-0.798855 0.758149 2.750463 114 137 123
-0.793388 0.757788 2.749152 106 132 117
-0.787427 0.756945 2.746096 100 126 111
-0.781106 0.755746 2.741744 90 123 106
-0.776034 0.755746 2.741744 92 125 108
-0.769742 0.754550 2.737405 92 128 112
-0.763470 0.753358 2.733080 94 130 114
-0.758330 0.753274 2.732778 97 132 114
-0.752169 0.752169 2.728768 96 131 113
-0.745944 0.750984 2.724470 93 131 115
-0.739739 0.749803 2.720186 94 132 116
-0.734707 0.749803 2.720186 97 136 117
-0.728838 0.748944 2.717067 100 139 120
-0.724426 0.749579 2.719373 102 139 120
-0.718424 0.748567 2.715702 101 138 119
-0.712438 0.747558 2.712040 100 138 122
-0.707210 0.747335 2.711232 100 138 122
-0.701205 0.746283 2.707413 104 140 124
-0.695109 0.745116 2.703182 107 143 127
-0.689515 0.744476 2.700860 110 144 129
-0.683942 0.743849 2.698585 112 146 131
-0.677987 0.742795 2.694760 114 148 133
-0.671955 0.741639 2.690568 115 149 134
-0.665942 0.740488 2.686389 117 149 135
-0.659947 0.739339 2.682224 118 150 136
-0.654894 0.739236 2.681849 118 152 137
-0.649017 0.738195 2.678071 120 154 139
-0.643335 0.737361 2.675048 122 154 140
-0.638022 0.736940 2.673518 124 156 142
-0.632196 0.735916 2.669804 128 160 146
-0.626291 0.734782 2.665690 133 165 151
-0.621072 0.734442 2.664458 136 170 155
-0.615735 0.733956 2.662694 136 170 155
-0.610462 0.733539 2.661179 136 170 155
-0.605119 0.733031 2.659338 134 168 153
-0.599702 0.732423 2.657132 134 163 150
-0.594531 0.732108 2.655989 132 161 148
-0.589292 0.731704 2.654522 132 160 147
-0.584139 0.731401 2.653423 132 160 147
-0.579230 0.731401 2.653423 131 160 147
-0.574233 0.731288 2.653016 129 158 145
-0.569325 0.731288 2.653016 127 159 145
-0.564417 0.731288 2.653016 126 158 144
-0.559432 0.731187 2.652650 126 155 142
-0.554219 0.730784 2.651186 124 153 140
-0.549011 0.730381 2.649724 120 152 138
-0.544034 0.730280 2.649359 120 152 138
-0.539654 0.730986 2.651918 119 151 137
-0.534969 0.731288 2.653016 119 151 137
-0.530061 0.731288 2.653016 119 151 137
-0.525153 0.731288 2.653016 118 150 136
-0.520245 0.731288 2.653016 119 151 137
-0.515361 0.731322 2.653138 119 151 137
-0.511214 0.732412 2.657091 121 150 137
-0.506298 0.732412 2.657091 121 150 137
-0.501383 0.732412 2.657091 121 150 137
-0.496467 0.732412 2.657091 120 149 136
-0.492081 0.733200 2.659951 117 149 135
-0.487385 0.733539 2.661179 117 149 135
-0.482499 0.733595 2.661383 117 149 135
-0.477612 0.733651 2.661588 117 149 135
-0.473344 0.734669 2.665279 118 147 134
-0.468413 0.734669 2.665279 118 147 134
-0.463618 0.734884 2.666060 117 146 133
-0.459295 0.735859 2.669598 117 146 133
-0.455023 0.736940 2.673518 115 147 133
-0.450335 0.737361 2.675048 114 146 132
-0.445820 0.738081 2.677657 113 145 131
-0.441550 0.739225 2.681808 113 145 131
-0.436623 0.739282 2.682016 114 143 130
-0.432298 0.740373 2.685973 113 142 129
-0.427575 0.740798 2.687517 112 142 126
-0.423017 0.741524 2.690150 112 142 126
-0.418692 0.742679 2.694340 108 141 124
-0.414062 0.743316 2.696650 107 140 123
-0.409360 0.743838 2.698543 109 138 122
-0.405000 0.745000 2.702760 109 138 122
-0.400457 0.745851 2.705846 108 137 124
-0.396244 0.747347 2.711275 108 137 124
-0.391837 0.748509 2.715489 107 136 123
-0.387476 0.749792 2.720143 107 136 123
-0.383596 0.752051 2.728338 105 137 123
-0.379147 0.753239 2.732648 105 137 123
-0.374684 0.754430 2.736972 105 137 123
-0.370235 0.755686 2.741527 104 136 122
-0.365714 0.756825 2.745661 107 136 123
-0.361381 0.758390 2.751338 106 135 122
-0.357086 0.760083 2.757479 105 137 123
-0.352716 0.761661 2.763205 105 137 123
-0.348188 0.762941 2.767847 104 138 123
-0.343639 0.764213 2.772461 104 138 123
-0.339206 0.765784 2.778161 104 136 122
-0.334798 0.767460 2.784242 103 135 121
-0.330424 0.769268 2.790801 105 134 121
-0.325976 0.770960 2.796938 104 133 120
-0.321556 0.772771 2.803511 103 132 119
-0.317074 0.774491 2.809750 104 133 120
-0.312602 0.776294 2.816292 101 133 119
-0.308547 0.779212 2.826878 101 133 119
-0.304013 0.780999 2.833360 100 134 121
-0.299458 0.782794 2.839873 99 133 120
-0.294931 0.784727 2.846883 96 132 118
-0.290765 0.787709 2.857701 97 133 119
-0.286567 0.790713 2.868601 95 131 117
-0.282009 0.792817 2.876233 96 132 118
-0.278214 0.797191 2.892102 95 131 117
-0.273504 0.799062 2.898888 95 131 117
-0.269224 0.802289 2.910595 92 130 116
-0.264914 0.805555 2.922446 91 129 115
-0.261003 0.810195 2.939280 89 129 114
-0.256612 0.813513 2.951316 89 129 114
-0.252617 0.818260 2.968537 89 129 112
-0.248447 0.822636 2.984414 89 129 112
-0.244063 0.826487 2.998382 87 138 117
-0.959303 0.803886 2.896946 61 153 116
-0.950125 0.800667 2.885348 78 136 110
-0.940723 0.797223 2.872937 78 136 110
-0.931987 0.794307 2.862430 84 129 106
-0.924398 0.792341 2.855342 82 127 104
-0.915639 0.789344 2.844542 89 122 105
-0.907467 0.786821 2.835450 89 122 105
-0.899493 0.784442 2.826877 94 123 107
-0.890770 0.781377 2.815833 95 124 108
-0.882114 0.778336 2.804875 100 124 110
-0.874939 0.776573 2.798522 103 127 113
-0.866398 0.773570 2.787697 112 127 114
-0.856547 0.769354 2.772505 114 129 116
-0.851146 0.769108 2.771617 124 136 124
-0.844665 0.767877 2.767184 139 151 139
-0.838205 0.766651 2.762764 149 158 149
-0.831898 0.765550 2.758798 154 163 154
-0.826676 0.765440 2.758402 157 165 156
-0.819899 0.763881 2.752783 147 155 146
-0.813047 0.762231 2.746838 144 149 141
-0.807491 0.761784 2.745225 147 152 144
-0.801268 0.760697 2.741310 145 153 144
-0.796083 0.760589 2.740919 142 150 141
-0.789873 0.759494 2.736972 126 141 130
-0.784686 0.759374 2.736539 117 132 121
-0.778515 0.758294 2.732648 107 131 117
-0.773399 0.758234 2.732432 109 133 119
-0.767192 0.757098 2.728338 107 137 121
-0.761701 0.756656 2.726747 109 139 123
-0.755787 0.755787 2.723613 112 141 125
-0.749686 0.754717 2.719758 112 141 125
-0.744011 0.754065 2.717408 108 141 124
-0.737304 0.752351 2.711232 107 140 123
-0.732208 0.752269 2.710935 103 140 121
-0.727193 0.752269 2.710935 104 141 122
-0.722042 0.752127 2.710425 105 139 124
-0.716119 0.751174 2.706990 108 142 127
-0.710100 0.750106 2.703140 108 142 127
-0.705000 0.750000 2.702760 109 143 128
-0.699202 0.749146 2.699680 114 146 132
-0.693905 0.748818 2.698501 115 147 133
-0.687850 0.747664 2.694340 119 151 137
-0.681900 0.746605 2.690526 121 153 139
-0.676512 0.746153 2.688895 122 154 140
-0.670735 0.745261 2.685681 123 155 141
-0.664796 0.744175 2.681767 124 156 142
-0.658824 0.743034 2.677657 125 157 143
-0.652950 0.741989 2.673890 125 157 143
-0.647813 0.741771 2.673105 125 157 143
-0.641975 0.740741 2.669393 125 157 143
-0.636850 0.740524 2.668610 127 159 145
-0.631076 0.739542 2.665074 132 161 148
-0.625231 0.738462 2.661179 135 164 151
-0.620212 0.738348 2.660770 136 168 154
-0.614439 0.737327 2.657091 137 169 155
-0.609346 0.737112 2.656316 138 167 154
-0.603681 0.736196 2.653016 136 165 152
-0.598773 0.736196 2.653016 133 162 149
-0.592956 0.735069 2.648953 132 161 148
-0.588055 0.735069 2.648953 129 161 147
-0.583155 0.735069 2.648953 128 160 146
-0.578254 0.735069 2.648953 126 160 145
-0.573354 0.735069 2.648953 125 159 144
-0.568453 0.735069 2.648953 124 158 143
-0.563553 0.735069 2.648953 123 157 142
-0.558575 0.734968 2.648588 121 153 139
-0.553752 0.735069 2.648953 120 152 138
-0.548767 0.734956 2.648547 118 150 136
-0.543951 0.735069 2.648953 117 149 135
-0.539051 0.735069 2.648953 117 151 136
-0.534150 0.735069 2.648953 117 151 136
-0.529250 0.735069 2.648953 116 150 135
-0.524349 0.735069 2.648953 116 150 135
-0.520245 0.736196 2.653016 116 150 135
-0.515337 0.736196 2.653016 116 150 135
-0.510429 0.736196 2.653016 117 149 135
-0.505871 0.736705 2.654848 117 149 135
-0.501383 0.737327 2.657091 117 149 135
-0.496467 0.737327 2.657091 116 148 134
-0.491551 0.737327 2.657091 116 150 135
-0.487310 0.738348 2.660770 115 149 134
-0.482462 0.738462 2.661179 116 148 134
-0.477538 0.738462 2.661179 116 148 134
-0.472885 0.738882 2.662694 116 148 134
-0.468413 0.739599 2.665279 115 147 133
-0.463482 0.739599 2.665279 115 147 133
-0.459259 0.740741 2.669393 114 146 132
-0.454890 0.741668 2.672734 114 146 132
-0.450077 0.741886 2.673518 113 145 131
-0.445800 0.743000 2.677532 112 144 130
-0.440928 0.743138 2.678030 113 145 131
-0.436589 0.744186 2.681808 114 144 128
-0.431628 0.744186 2.681808 113 143 127
-0.427329 0.745342 2.685973 113 143 125
-0.422820 0.746153 2.688895 112 142 124
-0.418105 0.746617 2.690568 108 143 125
-0.413707 0.747664 2.694340 107 142 124
-0.409297 0.748713 2.698123 109 139 121
-0.404558 0.749181 2.699807 109 139 121
-0.400000 0.750000 2.702760 107 140 123
-0.395680 0.751291 2.707413 106 139 122
-0.391529 0.752941 2.713359 108 137 124
-0.387421 0.754717 2.719758 108 137 124
-0.382992 0.755906 2.724041 107 136 123
-0.378549 0.757098 2.728338 107 136 123
-0.374092 0.758294 2.732648 105 137 123
-0.369913 0.760095 2.739139 105 137 123
-0.365187 0.760806 2.741700 105 137 123
-0.361168 0.763031 2.749720 105 137 123
-0.356518 0.763966 2.753090 107 136 123
-0.352209 0.765672 2.759238 107 136 123
-0.347882 0.767386 2.765414 105 137 123
-0.343535 0.769108 2.771617 105 137 123
-0.339152 0.770800 2.777715 105 137 123
-0.334782 0.772574 2.784108 104 136 122
-0.330323 0.774194 2.789946 105 137 123
-0.325950 0.776071 2.796712 103 135 121
-0.321504 0.777832 2.803057 103 135 121
-0.316883 0.779221 2.808062 102 134 120
-0.312551 0.781377 2.815833 102 134 120
-0.308044 0.783162 2.822265 101 133 119
-0.303739 0.785533 2.830810 101 133 121
-0.299458 0.788048 2.839873 100 132 120
-0.294882 0.789864 2.846415 99 131 119
-0.290765 0.792995 2.857701 98 130 118
-0.286140 0.794834 2.864326 98 130 118
-0.281962 0.798005 2.875754 97 129 117
-0.277750 0.801202 2.887275 95 131 117
-0.273504 0.804424 2.898888 95 131 117
-0.269224 0.807673 2.910595 91 131 116
-0.264954 0.811085 2.922890 90 130 115
-0.261003 0.815633 2.939280 89 129 112
-0.256612 0.818973 2.951316 87 127 110
-0.252617 0.823752 2.968537 84 128 112
-0.248177 0.827258 2.981174 83 127 111
-0.244063 0.832033 2.998382 77 134 113
-0.948543 0.804663 2.880543 80 138 112
-0.938883 0.800968 2.867317 80 138 112
-0.930448 0.798282 2.857701 86 131 108
-0.922889 0.796322 2.850683 84 129 106
-0.913731 0.792950 2.838614 91 124 107
-0.905833 0.790641 2.830347 91 124 107
-0.897879 0.788255 2.821805 95 124 108
-0.889322 0.785308 2.811257 95 124 108
-0.880686 0.782257 2.800334 98 122 108
-0.873484 0.780450 2.793866 100 124 110
-0.864795 0.777286 2.782540 111 126 113
-0.855136 0.773207 2.767936 112 127 114
-0.849227 0.772490 2.765369 122 134 122
-0.842105 0.770654 2.758798 153 165 153
-0.835669 0.769427 2.754405 173 182 173
-0.830177 0.769059 2.753089 179 188 179
-0.824257 0.768289 2.750332 184 192 183
-0.817661 0.766875 2.745269 159 167 158
-0.811681 0.766024 2.742222 149 154 146
-0.805867 0.765320 2.739703 153 158 150
-0.799810 0.764376 2.736322 152 160 151
-0.793681 0.763349 2.732648 150 158 149
-0.788626 0.763349 2.732648 138 153 142
-0.783199 0.762988 2.731354 130 145 134
-0.777287 0.762145 2.728338 119 143 129
-0.771631 0.761545 2.726188 119 143 129
-0.765659 0.760621 2.722883 117 147 131
-0.760334 0.760334 2.721855 117 147 131
-0.754610 0.759641 2.719373 118 147 131
-0.748509 0.758556 2.715489 118 147 131
-0.742320 0.757367 2.711232 114 147 130
-0.736150 0.756182 2.706990 113 146 129
-0.730799 0.755827 2.705719 109 146 127
-0.725794 0.755827 2.705719 109 146 127
-0.720709 0.755744 2.705423 111 145 130
-0.715000 0.755000 2.702760 113 147 132
-0.708970 0.753904 2.698838 116 150 135
-0.703670 0.753575 2.697659 119 153 138
-0.698048 0.752894 2.695221 123 155 141
-0.692727 0.752531 2.693920 123 155 141
-0.686621 0.751302 2.689522 125 157 143
-0.680745 0.750311 2.685973 128 160 146
-0.675242 0.749717 2.683847 132 164 150
-0.669767 0.749147 2.681808 133 165 151
-0.663746 0.747953 2.677532 132 164 150
-0.657805 0.746832 2.673518 132 164 150
-0.652587 0.746520 2.672403 131 163 149
-0.646914 0.745679 2.669393 130 162 148
-0.641194 0.744771 2.666142 130 162 148
-0.636026 0.744496 2.665156 131 163 149
-0.630008 0.743213 2.660565 134 163 150
-0.624270 0.742243 2.657091 135 164 151
-0.619269 0.742140 2.656724 134 166 152
-0.613695 0.741343 2.653871 134 166 152
-0.608561 0.741070 2.652894 136 165 152
-0.603403 0.740763 2.651795 135 164 151
-0.597856 0.739969 2.648953 134 163 150
-0.592874 0.739867 2.648588 132 161 148
-0.587677 0.739494 2.647250 129 161 147
-0.582887 0.739630 2.647736 126 158 144
-0.577679 0.739234 2.646319 124 158 143
-0.572538 0.738917 2.645186 123 157 142
-0.568010 0.739392 2.646885 120 154 139
-0.562691 0.738838 2.644902 119 153 138
-0.557798 0.738838 2.644902 119 151 137
-0.552905 0.738838 2.644902 116 148 134
-0.548012 0.738838 2.644902 115 147 133
-0.543526 0.739392 2.646885 114 146 132
-0.538630 0.739392 2.646886 113 147 132
-0.534150 0.739969 2.648953 113 147 132
-0.529250 0.739969 2.648953 113 147 132
-0.524349 0.739969 2.648953 113 147 132
-0.519616 0.740207 2.649805 112 146 131
-0.515100 0.740763 2.651796 113 147 132
-0.510429 0.741104 2.653016 115 147 133
-0.505521 0.741104 2.653016 116 148 134
-0.500614 0.741104 2.653016 116 148 134
-0.496238 0.741901 2.655867 116 148 134
-0.491484 0.742140 2.656724 114 148 133
-0.486636 0.742243 2.657091 114 148 133
-0.482350 0.743213 2.660565 115 147 133
-0.477538 0.743385 2.661179 115 147 133
-0.472615 0.743385 2.661179 114 146 132
-0.467843 0.743625 2.662039 114 146 132
-0.463482 0.744530 2.665279 113 145 131
-0.459153 0.745506 2.668775 113 145 131
-0.454321 0.745679 2.669393 113 145 131
-0.450077 0.746832 2.673518 112 144 130
-0.445131 0.746832 2.673518 112 144 130
-0.440867 0.747988 2.677657 111 143 129
-0.436589 0.749147 2.681808 112 142 126
-0.431628 0.749147 2.681808 112 142 126
-0.427329 0.750311 2.685973 111 141 123
-0.422682 0.750882 2.688018 111 141 123
-0.418040 0.751477 2.690150 108 143 125
-0.413707 0.752648 2.694340 108 143 125
-0.408723 0.752648 2.694340 110 140 122
-0.404368 0.753822 2.698543 110 140 122
-0.399944 0.754894 2.702380 108 141 124
-0.395680 0.756300 2.707413 107 140 123
-0.391529 0.757961 2.713359 109 138 125
-0.387360 0.759629 2.719331 109 138 125
-0.382866 0.760693 2.723141 108 137 124
-0.378495 0.762037 2.727951 108 137 124
-0.374092 0.763349 2.732648 106 138 124
-0.369620 0.764557 2.736972 105 137 123
-0.365135 0.765769 2.741310 105 137 123
-0.360807 0.767350 2.746969 105 137 123
-0.356518 0.769059 2.753090 107 136 123
-0.352192 0.770740 2.759106 107 136 123
-0.347798 0.772317 2.764751 105 137 123
-0.343535 0.774235 2.771617 105 137 123
-0.339005 0.775602 2.776511 105 137 123
-0.334405 0.776849 2.780975 105 137 123
-0.330323 0.779355 2.789946 105 137 123
-0.325608 0.780425 2.793776 105 137 123
-0.321036 0.781877 2.798975 104 136 122
-0.316523 0.783525 2.804875 103 135 121
-0.312043 0.785308 2.811257 102 134 120
-0.307858 0.787907 2.820562 102 134 120
-0.303516 0.790188 2.828727 100 132 120
-0.298967 0.792001 2.835218 100 132 120
-0.294882 0.795129 2.846415 99 131 119
-0.290285 0.796965 2.852988 98 130 118
-0.286093 0.800000 2.863851 98 130 118
-0.281891 0.803125 2.875037 97 129 117
-0.277750 0.806543 2.887275 96 132 118
-0.273504 0.809787 2.898888 94 130 116
-0.269224 0.813057 2.910595 90 130 115
-0.264910 0.816354 2.922396 89 129 114
-0.260715 0.820165 2.936037 89 129 112
-0.256612 0.824433 2.951316 87 127 110
-0.252314 0.828248 2.964975 84 128 112
-0.248148 0.832673 2.980814 83 127 111
-0.244063 0.837580 2.998382 74 131 110
-0.239721 0.841812 3.013530 81 138 117
-0.946966 0.808645 2.875754 79 141 112
-0.936353 0.804100 2.859590 77 139 110
-0.928913 0.802243 2.852987 83 133 110
-0.920523 0.799540 2.843373 81 131 108
-0.911293 0.796072 2.831042 90 125 107
-0.903837 0.794122 2.824108 91 126 108
-0.895760 0.791602 2.815146 94 124 108
-0.887159 0.788586 2.804420 93 123 107
-0.878837 0.785784 2.794453 94 123 107
-0.871415 0.783758 2.787248 95 124 108
-0.862575 0.780425 2.775397 102 125 109
-0.853061 0.776439 2.761220 104 127 111
-0.846332 0.774954 2.755941 114 132 120
-0.840296 0.774091 2.752871 133 151 139
-0.834274 0.773229 2.749807 148 160 150
-0.827937 0.772064 2.745661 154 166 156
-0.821618 0.770901 2.741527 158 172 164
-0.816094 0.770474 2.740007 150 164 156
-0.810127 0.769620 2.736972 140 160 147
-0.803792 0.768404 2.732648 144 164 151
-0.798421 0.768101 2.731569 138 168 152
-0.792492 0.767253 2.728553 136 166 150
-0.787196 0.767011 2.727693 128 165 146
-0.781287 0.766165 2.724685 122 159 140
-0.776063 0.765984 2.724041 115 156 136
-0.769811 0.764780 2.719758 114 155 135
-0.763639 0.763639 2.715702 118 150 136
-0.758377 0.763399 2.714849 118 150 136
-0.752351 0.762383 2.711232 119 148 135
-0.747218 0.762263 2.710808 118 147 134
-0.740868 0.760892 2.705931 115 149 134
-0.735000 0.760000 2.702760 114 148 133
-0.730000 0.760000 2.702760 113 147 132
-0.724264 0.759229 2.700018 112 146 131
-0.718877 0.758814 2.698543 112 148 132
-0.713885 0.758814 2.698543 116 152 136
-0.707843 0.757691 2.694550 120 156 140
-0.702804 0.757632 2.694340 126 162 146
-0.696897 0.756631 2.690778 130 164 149
-0.691650 0.756337 2.689731 130 164 149
-0.685714 0.755280 2.685973 133 165 151
-0.680165 0.754635 2.683681 135 167 153
-0.674415 0.753758 2.680561 139 171 157
-0.668731 0.752941 2.677657 141 173 159
-0.662751 0.751777 2.673518 142 171 158
-0.657044 0.750907 2.670423 141 170 157
-0.651400 0.750096 2.667540 136 168 154
-0.645917 0.749461 2.665279 134 166 152
-0.640641 0.749057 2.663842 133 165 151
-0.634979 0.748193 2.660769 132 164 150
-0.629186 0.747158 2.657091 132 164 150
-0.623361 0.746070 2.653219 132 164 150
-0.618405 0.746012 2.653016 134 163 150
-0.612557 0.744870 2.648953 135 164 151
-0.607657 0.744870 2.648953 136 165 152
-0.602295 0.744300 2.646926 135 164 151
-0.596942 0.743731 2.644902 129 165 149
-0.592049 0.743731 2.644902 126 162 146
-0.587156 0.743731 2.644902 122 160 144
-0.582263 0.743731 2.644902 120 158 142
-0.577370 0.743731 2.644902 116 156 139
-0.572477 0.743731 2.644902 113 153 136
-0.567584 0.743731 2.644902 112 152 135
-0.562691 0.743731 2.644902 111 151 134
-0.557798 0.743731 2.644902 109 149 132
-0.552905 0.743731 2.644902 109 149 132
-0.547970 0.743674 2.644701 111 147 131
-0.543119 0.743731 2.644902 110 146 130
-0.538226 0.743731 2.644902 110 144 129
-0.533333 0.743731 2.644902 110 144 129
-0.528845 0.744300 2.646926 110 146 130
-0.524349 0.744870 2.648953 111 147 131
-0.519449 0.744870 2.648953 112 146 131
-0.514548 0.744870 2.648953 112 146 131
-0.510038 0.745441 2.650983 113 147 132
-0.505521 0.746012 2.653016 113 147 132
-0.500614 0.746012 2.653016 112 146 131
-0.495706 0.746012 2.653016 113 147 132
-0.491438 0.746986 2.656479 114 148 133
-0.486636 0.747158 2.657091 114 148 133
-0.481906 0.747445 2.658112 113 147 132
-0.477538 0.748308 2.661179 113 147 132
-0.472615 0.748308 2.661179 112 146 131
-0.467944 0.748711 2.662613 112 146 131
-0.462840 0.748423 2.661589 111 145 130
-0.458552 0.749461 2.665279 111 145 130
-0.454321 0.750617 2.669393 111 143 129
-0.449591 0.750965 2.670629 111 143 129
-0.445131 0.751777 2.673518 110 142 128
-0.440867 0.752941 2.677657 110 142 128
-0.436082 0.753233 2.678693 110 143 126
-0.431628 0.754109 2.681808 109 142 125
-0.427329 0.755280 2.685973 111 141 125
-0.422360 0.755280 2.685973 111 141 125
-0.418040 0.756454 2.690150 111 141 125
-0.413385 0.757043 2.692243 110 140 124
-0.408723 0.757632 2.694340 107 142 124
-0.404368 0.758814 2.698543 107 142 124
-0.399906 0.759822 2.702126 109 139 123
-0.395649 0.761249 2.707201 109 139 123
-0.391223 0.762383 2.711232 109 138 125
-0.386813 0.763579 2.715489 108 137 124
-0.382570 0.765141 2.721042 106 138 124
-0.378370 0.766830 2.727048 106 138 124
-0.373826 0.767859 2.730707 105 137 123
-0.369620 0.769620 2.736972 105 137 123
-0.365106 0.770779 2.741092 104 138 123
-0.360721 0.772247 2.746315 104 138 123
-0.356518 0.774153 2.753090 105 137 123
-0.352153 0.775758 2.758798 105 137 123
-0.347604 0.776997 2.763205 105 137 123
-0.343040 0.778240 2.767626 105 137 123
-0.338624 0.779862 2.773395 105 138 121
-0.334405 0.781994 2.780975 105 138 121
-0.329844 0.783379 2.785902 104 137 120
-0.325424 0.785149 2.792197 105 138 121
-0.321010 0.786991 2.798748 103 137 122
-0.316446 0.788522 2.804193 103 137 122
-0.312043 0.790509 2.811257 102 136 121
-0.307542 0.792311 2.817668 101 135 120
-0.303268 0.794771 2.826415 99 133 118
-0.298967 0.797246 2.835218 99 133 118
-0.294398 0.799080 2.841739 99 131 117
-0.290285 0.802243 2.852988 99 131 117
-0.285880 0.804699 2.861719 98 132 117
-0.281728 0.807973 2.873366 97 131 116
-0.277727 0.811817 2.887034 96 132 116
-0.273344 0.814672 2.897188 94 130 114
-0.269224 0.818442 2.910595 90 130 113
-0.264910 0.821761 2.922396 89 129 112
-0.260560 0.825106 2.934294 89 129 112
-0.256590 0.829822 2.951065 88 128 111
-0.252617 0.834735 2.968537 87 127 112
-0.248576 0.839634 2.985959 87 127 112
-0.244105 0.843273 2.998902 80 131 112
-0.240035 0.848495 3.017473 82 133 114
-0.945394 0.812614 2.870981 82 144 115
-0.934808 0.808054 2.854871 79 141 112
-0.926636 0.805541 2.845993 84 134 111
-0.918801 0.803295 2.838055 81 131 108
-0.910205 0.800353 2.827662 91 126 108
-0.902364 0.798044 2.819505 91 126 108
-0.894959 0.796098 2.812628 93 123 107
-0.886441 0.793131 2.802148 92 122 106
-0.877844 0.790060 2.791296 93 122 106
-0.870713 0.788279 2.785004 93 122 106
-0.861055 0.784175 2.770507 98 121 105
-0.852313 0.780861 2.758798 102 125 109
-0.845456 0.779246 2.753089 111 129 117
-0.839428 0.778378 2.750026 116 134 122
-0.833016 0.777143 2.745661 125 137 127
-0.826821 0.776096 2.741961 131 143 133
-0.821553 0.775911 2.741310 134 148 140
-0.815190 0.774684 2.736972 141 155 147
-0.809230 0.773826 2.733944 139 159 146
-0.803792 0.773460 2.732648 140 160 147
-0.797665 0.772422 2.728983 133 163 147
-0.791642 0.771473 2.725629 132 162 146
-0.786142 0.771024 2.724041 124 161 142
-0.780242 0.770175 2.721042 120 157 138
-0.774843 0.769811 2.719758 115 156 136
-0.769388 0.769388 2.718262 115 156 136
-0.763579 0.768603 2.715489 119 151 137
-0.757723 0.767759 2.712507 119 151 137
-0.751774 0.766809 2.709152 121 150 137
-0.746166 0.766197 2.706990 119 148 135
-0.740000 0.765000 2.702760 115 149 134
-0.733853 0.763807 2.698543 114 148 133
-0.728861 0.763807 2.698543 113 147 132
-0.723869 0.763807 2.698543 114 148 133
-0.718877 0.763807 2.698543 116 152 136
-0.713495 0.763390 2.697070 120 156 140
-0.707788 0.762617 2.694340 124 160 144
-0.701711 0.761431 2.690150 129 165 149
-0.696734 0.761431 2.690150 133 167 152
-0.690683 0.760249 2.685973 133 167 152
-0.685342 0.759835 2.684513 136 168 154
-0.679690 0.759070 2.681808 137 169 155
-0.673684 0.757895 2.677657 138 170 156
-0.668007 0.757074 2.674758 140 172 158
-0.662751 0.756723 2.673518 141 170 157
-0.656790 0.755556 2.669393 140 169 156
-0.650948 0.754508 2.665690 135 167 153
-0.645708 0.754147 2.664417 134 166 152
-0.640000 0.753231 2.661179 132 164 150
-0.634101 0.752074 2.657091 130 162 148
-0.628510 0.751266 2.654237 128 160 146
-0.623313 0.750920 2.653016 127 159 145
-0.618121 0.750575 2.651796 128 157 144
-0.612557 0.749770 2.648953 128 157 144
-0.606756 0.748658 2.645024 128 157 144
-0.601835 0.748624 2.644902 128 157 144
-0.596942 0.748624 2.644902 123 159 143
-0.591606 0.748063 2.642922 122 158 142
-0.587156 0.748624 2.644902 117 155 139
-0.582263 0.748624 2.644902 115 153 137
-0.576753 0.747823 2.642074 112 152 135
-0.571865 0.747823 2.642074 109 149 132
-0.567584 0.748624 2.644902 109 149 132
-0.562090 0.747823 2.642074 108 148 131
-0.557176 0.747789 2.641953 107 147 130
-0.552905 0.748624 2.644902 105 145 128
-0.547987 0.748590 2.644781 107 143 127
-0.542539 0.747823 2.642074 106 142 126
-0.538226 0.748624 2.644902 108 142 127
-0.533333 0.748624 2.644902 109 143 128
-0.528440 0.748624 2.644902 108 144 128
-0.524293 0.749690 2.648669 107 143 127
-0.519449 0.749770 2.648953 110 144 129
-0.514548 0.749770 2.648953 110 144 129
-0.509882 0.750115 2.650170 109 143 128
-0.505405 0.750748 2.652406 110 144 129
-0.500614 0.750920 2.653016 110 144 129
-0.495706 0.750920 2.653016 110 144 129
-0.490798 0.750920 2.653016 111 145 130
-0.486636 0.752074 2.657091 112 146 131
-0.481831 0.752247 2.657703 112 146 131
-0.477076 0.752501 2.658602 111 145 130
-0.472615 0.753231 2.661179 111 145 130
-0.467692 0.753231 2.661179 110 144 129
-0.462791 0.753266 2.661302 110 144 129
-0.458552 0.754391 2.665279 109 143 128
-0.454251 0.755439 2.668981 110 142 128
-0.449528 0.755801 2.670258 110 142 128
-0.444987 0.756478 2.672651 110 142 128
-0.440437 0.757156 2.675048 110 142 128
-0.435913 0.757895 2.677657 110 143 126
-0.431628 0.759070 2.681808 109 142 125
-0.427004 0.759670 2.683930 111 141 125
-0.422360 0.760249 2.685973 111 141 125
-0.418040 0.761431 2.690150 111 141 125
-0.413160 0.761608 2.690777 110 140 124
-0.408723 0.762617 2.694340 107 142 124
-0.404368 0.763807 2.698543 107 142 124
-0.399944 0.764893 2.702380 109 139 123
-0.395680 0.766317 2.707413 109 139 123
-0.391315 0.767579 2.711870 109 138 125
-0.386813 0.768603 2.715489 108 137 124
-0.382570 0.770175 2.721042 106 138 124
-0.378370 0.771875 2.727048 106 138 124
-0.373561 0.772362 2.728769 105 137 123
-0.369328 0.774071 2.734808 105 137 123
-0.365077 0.775788 2.740875 104 138 123
-0.360635 0.777143 2.745661 104 138 123
-0.356121 0.778378 2.750026 105 137 123
-0.352153 0.780861 2.758798 105 137 123
-0.347604 0.782109 2.763205 105 137 123
-0.343040 0.783360 2.767626 105 137 123
-0.338624 0.784993 2.773395 104 137 120
-0.334244 0.786759 2.779634 104 137 120
-0.329807 0.788444 2.785588 104 137 120
-0.325424 0.790315 2.792197 104 137 120
-0.320984 0.792105 2.798522 103 137 122
-0.316370 0.793517 2.803511 103 137 122
-0.312043 0.795709 2.811257 103 137 122
-0.307542 0.797524 2.817668 102 136 121
-0.303020 0.799347 2.824108 101 135 120
-0.298527 0.801309 2.831042 100 134 119
-0.294398 0.804337 2.841739 100 132 118
-0.290084 0.806962 2.851013 99 131 117
-0.285667 0.809390 2.859591 98 132 117
-0.281657 0.813087 2.872650 97 131 116
-0.277319 0.815959 2.882800 97 133 117
-0.273408 0.820224 2.897868 96 132 116
-0.269224 0.823826 2.910595 92 132 115
-0.264910 0.827167 2.922396 91 131 114
-0.260560 0.830534 2.934294 90 130 113
-0.256612 0.835352 2.951316 88 128 111
-0.252617 0.840227 2.968537 87 127 112
-0.248486 0.844852 2.984877 88 128 113
-0.244076 0.848718 2.998538 81 132 113
-0.239930 0.853705 3.016157 82 133 114
-0.235748 0.858797 3.034146 79 140 118
-0.934669 0.813215 2.854447 82 140 114
-0.925859 0.810127 2.843607 82 136 112
-0.916981 0.806943 2.832432 81 135 111
-0.908453 0.804033 2.822219 86 130 109
-0.900895 0.801953 2.814917 85 129 108
-0.892333 0.798950 2.804375 90 127 108
-0.885007 0.797024 2.797616 88 125 106
-0.876147 0.793687 2.785901 93 119 102
-0.868183 0.791126 2.776912 93 119 102
-0.859610 0.787976 2.765856 97 117 104
-0.850955 0.784713 2.754405 101 121 108
-0.844247 0.783217 2.749152 108 131 117
-0.838135 0.782259 2.745791 113 136 122
-0.831814 0.781094 2.741700 122 142 129
-0.826035 0.780426 2.739356 131 151 138
-0.820253 0.779747 2.736972 133 156 145
-0.814803 0.779377 2.735673 134 157 146
-0.808847 0.778515 2.732648 129 162 145
-0.802524 0.777287 2.728338 128 161 144
-0.797476 0.777287 2.728338 125 162 143
-0.791194 0.776075 2.724084 124 161 142
-0.785808 0.775733 2.722883 119 158 139
-0.779911 0.774879 2.719887 116 155 136
-0.774733 0.774733 2.719373 116 155 136
-0.768603 0.773626 2.715489 117 156 137
-0.762502 0.772535 2.711657 121 155 140
-0.757046 0.772087 2.710085 121 155 140
-0.751174 0.771205 2.706990 121 155 142
-0.745105 0.770108 2.703140 118 152 139
-0.738903 0.768859 2.698754 115 149 136
-0.732824 0.767721 2.694760 114 148 135
-0.727760 0.767637 2.694466 113 149 135
-0.722741 0.767601 2.694340 115 151 137
-0.717757 0.767601 2.694340 114 154 137
-0.712273 0.767064 2.692453 116 156 139
-0.706687 0.766408 2.690150 121 159 145
-0.701416 0.766086 2.689021 124 162 148
-0.695685 0.765253 2.686098 126 164 150
-0.690576 0.765099 2.685555 129 167 153
-0.684174 0.763498 2.679938 131 169 153
-0.678638 0.762848 2.677657 129 167 151
-0.672716 0.761752 2.673807 132 166 151
-0.667697 0.761669 2.673518 133 167 152
-0.661728 0.760494 2.669393 133 165 151
-0.655829 0.759381 2.665485 133 165 151
-0.650847 0.759322 2.665279 132 164 150
-0.645618 0.758971 2.664048 132 164 150
-0.640000 0.758154 2.661179 128 162 147
-0.634101 0.756989 2.657091 125 159 144
-0.628221 0.755828 2.653016 122 158 142
-0.622539 0.754890 2.649724 119 155 139
-0.617458 0.754671 2.648953 118 152 137
-0.611901 0.753863 2.646116 116 150 135
-0.606728 0.753517 2.644902 112 150 134
-0.601835 0.753517 2.644902 111 149 133
-0.596122 0.752481 2.641268 111 151 134
-0.591208 0.752447 2.641147 112 152 135
-0.586260 0.752366 2.640865 110 153 135
-0.582094 0.753298 2.644135 108 151 133
-0.576885 0.752884 2.642680 107 150 132
-0.571603 0.752366 2.640865 106 149 131
-0.566718 0.752366 2.640865 103 147 129
-0.561832 0.752366 2.640865 103 147 129
-0.556947 0.752366 2.640865 103 146 130
-0.552061 0.752366 2.640865 100 143 127
-0.547176 0.752366 2.640865 102 142 127
-0.542290 0.752366 2.640865 102 142 127
-0.537462 0.752447 2.641147 103 141 127
-0.532674 0.752585 2.641631 104 142 128
-0.528440 0.753517 2.644902 107 141 126
-0.523547 0.753517 2.644902 106 140 125
-0.519449 0.754671 2.648953 105 141 125
-0.514548 0.754671 2.648953 107 143 127
-0.509648 0.754671 2.648953 108 144 128
-0.504747 0.754671 2.648953 107 143 127
-0.499923 0.754786 2.649359 108 142 127
-0.495706 0.755828 2.653016 108 142 127
-0.490798 0.755828 2.653016 108 142 127
-0.486569 0.756885 2.656724 109 143 128
-0.481720 0.756989 2.657091 109 145 129
-0.476871 0.757094 2.657458 109 145 129
-0.472615 0.758154 2.661179 109 143 128
-0.467692 0.758154 2.661179 109 143 128
-0.462769 0.758154 2.661179 109 144 126
-0.458516 0.759264 2.665074 109 144 126
-0.453684 0.759427 2.665649 109 144 124
-0.449383 0.760494 2.669393 109 144 124
-0.444946 0.761352 2.672403 109 144 124
-0.440315 0.761893 2.674304 109 144 124
-0.435913 0.762848 2.677657 107 144 123
-0.431020 0.762955 2.678030 107 144 123
-0.426667 0.764031 2.681808 109 142 125
-0.422360 0.765217 2.685973 109 142 125
-0.417515 0.765443 2.686765 109 142 125
-0.413096 0.766467 2.690359 108 141 124
-0.408665 0.767494 2.693962 108 141 124
-0.404324 0.768715 2.698249 108 141 124
