ply
format ascii 1.0
element vertex 1195
property float x
property float y
property float z
property uchar red
property uchar green
property uchar blue
end_header
0.414611 -0.079733 1.850928 146 150 161
0.416221 -0.079702 1.850210 146 150 161
0.417928 -0.079690 1.849924 146 150 161
0.419457 -0.079644 1.848860 146 150 161
0.421027 -0.079606 1.847981 145 150 158
0.422689 -0.079586 1.847511 144 149 157
0.424309 -0.079558 1.846868 144 149 157
0.425840 -0.079514 1.845838 144 149 157
0.427373 -0.079470 1.844830 144 149 157
0.429115 -0.079466 1.844728 144 149 157
0.430580 -0.079410 1.843436 144 149 157
0.432177 -0.079380 1.842724 145 150 158
0.433934 -0.079378 1.842694 144 150 158
0.435590 -0.079359 1.842237 145 151 159
0.437221 -0.079334 1.841679 146 152 160
0.438742 -0.079291 1.840665 148 154 162
0.440352 -0.079263 1.840026 149 154 162
0.442023 -0.079247 1.839652 150 155 163
0.443564 -0.079208 1.838741 149 154 162
0.445300 -0.079204 1.838640 148 153 161
0.447085 -0.079208 1.838741 148 153 161
0.448845 -0.079208 1.838741 148 153 161
0.450605 -0.079208 1.838741 149 154 161
0.452365 -0.079208 1.838741 150 155 162
0.454125 -0.079208 1.838741 155 157 165
0.456111 -0.079247 1.839652 157 159 167
0.457872 -0.079247 1.839652 155 160 167
0.459633 -0.079247 1.839652 156 161 168
0.461407 -0.079249 1.839702 156 161 166
0.463181 -0.079252 1.839753 156 161 166
0.465011 -0.079263 1.840026 154 160 165
0.466935 -0.079291 1.840665 153 159 164
0.468955 -0.079334 1.841679 152 158 163
0.470718 -0.079334 1.841679 150 156 161
0.472504 -0.079338 1.841770 148 154 159
0.474341 -0.079351 1.842054 146 152 157
0.476104 -0.079351 1.842054 145 151 156
0.477772 -0.079335 1.841689 146 152 157
0.479559 -0.079339 1.841780 145 151 156
0.481346 -0.079343 1.841872 146 152 157
0.483085 -0.079339 1.841780 146 152 157
0.484848 -0.079339 1.841780 147 153 158
0.486585 -0.079334 1.841679 148 154 161
0.488348 -0.079334 1.841679 151 157 164
0.490111 -0.079334 1.841679 153 159 166
0.491874 -0.079334 1.841679 153 159 166
0.493637 -0.079334 1.841679 154 160 167
0.495154 -0.079295 1.840766 154 160 167
0.497163 -0.079334 1.841679 155 161 168
0.498926 -0.079334 1.841679 156 162 169
0.500689 -0.079334 1.841679 156 162 169
0.502729 -0.079378 1.842694 155 161 168
0.504495 -0.079379 1.842704 155 161 168
0.506536 -0.079422 1.843710 155 161 168
0.508581 -0.079466 1.844728 155 161 168
0.510629 -0.079510 1.845746 156 162 169
0.512679 -0.079554 1.846766 157 163 171
0.514475 -0.079558 1.846868 158 164 172
0.516643 -0.079620 1.848298 158 164 172
0.518581 -0.079646 1.848901 159 165 173
0.520432 -0.079658 1.849187 159 165 173
0.522104 -0.079643 1.848839 159 165 173
0.523865 -0.079642 1.848809 159 165 173
0.525635 -0.079642 1.848809 158 164 172
0.527667 -0.079681 1.849729 158 164 172
0.529760 -0.079730 1.850856 157 163 171
0.531532 -0.079730 1.850856 157 163 171
0.533304 -0.079730 1.850856 155 161 169
0.535076 -0.079730 1.850856 154 160 168
0.536847 -0.079730 1.850856 153 159 167
0.538619 -0.079730 1.850856 151 160 166
0.540660 -0.079770 1.851779 151 160 166
0.542463 -0.079774 1.851881 151 160 166
0.544371 -0.079794 1.852343 152 161 167
0.546311 -0.079818 1.852908 152 161 167
0.548389 -0.079862 1.853936 152 161 167
0.550164 -0.079862 1.853936 152 161 167
0.552217 -0.079903 1.854872 152 161 167
0.554020 -0.079907 1.854964 153 162 168
0.555796 -0.079907 1.854964 153 162 168
0.557263 -0.079862 1.853936 153 162 168
0.559233 -0.079890 1.854584 154 163 169
0.560840 -0.079866 1.854028 154 163 169
0.562587 -0.079862 1.853936 155 164 170
0.564330 -0.079858 1.853833 155 164 170
0.566479 -0.079911 1.855057 155 164 170
0.226950 -0.097900 2.324314 135 151 160
0.220589 -0.094232 2.237234 138 154 163
0.216351 -0.091533 2.173153 147 157 168
0.214946 -0.090073 2.138481 150 160 171
0.215141 -0.089304 2.120224 153 161 171
0.215387 -0.088570 2.102806 157 165 175
0.216338 -0.088138 2.092539 158 166 176
0.217673 -0.087868 2.086140 158 166 176
0.218662 -0.087465 2.076563 160 165 176
0.219561 -0.087033 2.066320 159 164 175
0.220730 -0.086716 2.058774 157 161 172
0.221704 -0.086327 2.049559 154 158 169
0.223324 -0.086195 2.046422 151 155 168
0.224898 -0.086048 2.042921 148 152 165
0.226480 -0.085906 2.039555 144 149 162
0.227938 -0.085720 2.035147 141 146 159
0.229572 -0.085603 2.032363 139 144 159
0.231321 -0.085530 2.030635 138 143 158
0.232727 -0.085333 2.025958 132 140 154
0.234142 -0.085142 2.021425 131 139 153
0.235834 -0.085055 2.019350 129 139 152
0.237427 -0.084933 2.016463 128 138 151
0.239020 -0.084814 2.013620 127 137 150
0.240732 -0.084738 2.011815 126 136 149
0.242551 -0.084700 2.010931 124 134 145
0.244069 -0.084559 2.007586 123 133 144
0.245637 -0.084438 2.004696 123 133 144
0.247232 -0.084327 2.002067 123 133 144
0.248655 -0.084160 1.998106 124 132 144
0.250219 -0.084043 1.995327 124 132 144
0.251886 -0.083962 1.993400 123 131 143
0.253560 -0.083884 1.991559 123 131 143
0.254918 -0.083704 1.987284 122 132 143
0.256454 -0.083585 1.984453 122 132 143
0.257912 -0.083442 1.981054 121 131 142
0.259439 -0.083323 1.978241 121 131 142
0.261112 -0.083253 1.976568 121 131 144
0.262758 -0.083175 1.974723 121 131 144
0.264416 -0.083102 1.972987 122 132 145
0.265975 -0.082999 1.970544 123 133 146
0.267373 -0.082848 1.966950 124 134 147
0.268829 -0.082716 1.963830 124 134 147
0.270327 -0.082600 1.961065 126 134 148
0.271948 -0.082522 1.959214 126 134 148
0.273429 -0.082403 1.956394 127 135 149
0.274959 -0.082301 1.953958 127 135 149
0.276442 -0.082185 1.951221 128 136 150
0.278082 -0.082118 1.949627 128 136 150
0.279637 -0.082027 1.947458 129 137 151
0.281208 -0.081941 1.945429 129 137 151
0.282906 -0.081894 1.944298 129 137 151
0.284618 -0.081851 1.943281 128 136 150
0.286245 -0.081784 1.941700 126 134 148
0.287703 -0.081671 1.938997 124 132 146
0.289324 -0.081604 1.937424 123 131 145
0.290943 -0.081538 1.935853 122 130 144
0.292542 -0.081467 1.934173 122 130 144
0.294172 -0.081406 1.932719 122 130 144
0.295783 -0.081340 1.931156 122 130 144
0.297224 -0.081229 1.928516 122 130 144
0.298824 -0.081162 1.926926 123 131 145
0.300426 -0.081097 1.925372 124 132 146
0.302026 -0.081031 1.923821 125 133 147
0.303623 -0.080966 1.922272 125 133 147
0.305229 -0.080904 1.920803 126 134 146
0.306897 -0.080859 1.919733 128 136 148
0.308558 -0.080813 1.918631 129 137 149
0.310076 -0.080730 1.916662 129 137 149
0.311694 -0.080674 1.915333 132 137 150
0.313348 -0.080628 1.914236 134 139 152
0.315063 -0.080598 1.913524 134 139 152
0.316669 -0.080540 1.912156 135 140 153
0.318062 -0.080430 1.909534 137 141 154
0.319596 -0.080356 1.907780 137 141 154
0.321204 -0.080301 1.906485 136 141 154
0.322680 -0.080214 1.904421 136 141 154
0.324324 -0.080170 1.903370 137 142 153
0.325899 -0.080109 1.901929 138 143 154
0.327459 -0.080045 1.900416 141 146 157
0.329016 -0.079982 1.898904 142 147 158
0.330599 -0.079925 1.897557 144 148 161
0.332123 -0.079855 1.895889 145 149 162
0.333673 -0.079791 1.894385 145 149 162
0.335221 -0.079728 1.892883 146 150 163
0.336785 -0.079670 1.891490 146 150 163
0.338308 -0.079602 1.889886 146 150 163
0.339835 -0.079536 1.888317 146 150 163
0.341404 -0.079480 1.886995 145 149 162
0.342922 -0.079413 1.885409 145 149 160
0.344460 -0.079352 1.883954 145 149 160
0.346014 -0.079295 1.882596 145 149 160
0.347513 -0.079226 1.880954 144 148 159
0.349253 -0.079212 1.880626 144 148 159
0.350759 -0.079146 1.879051 143 147 158
0.352354 -0.079100 1.877963 142 146 157
0.353899 -0.079043 1.876624 142 146 157
0.355502 -0.079000 1.875603 140 144 155
0.357091 -0.078955 1.874520 138 142 153
0.358744 -0.078924 1.873784 138 142 153
0.360128 -0.078834 1.871654 139 143 154
0.361794 -0.078807 1.871005 139 143 154
0.363453 -0.078778 1.870325 140 144 155
0.364997 -0.078725 1.869059 139 143 154
0.366523 -0.078668 1.867722 139 143 154
0.368206 -0.078646 1.867190 140 141 153
0.369818 -0.078609 1.866304 140 141 153
0.371443 -0.078574 1.865492 138 142 153
0.373152 -0.078558 1.865107 138 142 153
0.374747 -0.078518 1.864160 139 143 154
0.376303 -0.078471 1.863028 138 142 153
0.377907 -0.078434 1.862146 139 143 154
0.379525 -0.078399 1.861337 140 144 155
0.381292 -0.078396 1.861265 140 144 155
0.382905 -0.078362 1.860446 141 145 156
0.384635 -0.078351 1.860198 140 144 155
0.386282 -0.078324 1.859556 140 144 155
0.387922 -0.078296 1.858884 139 143 154
0.389550 -0.078266 1.858161 138 142 153
0.391263 -0.078253 1.857851 135 140 151
0.393042 -0.078253 1.857851 133 138 149
0.394634 -0.078216 1.856974 131 136 147
0.396378 -0.078209 1.856819 130 135 146
0.397935 -0.078166 1.855788 130 135 146
0.399603 -0.078145 1.855283 131 136 147
0.401265 -0.078122 1.854759 133 137 148
0.402851 -0.078086 1.853884 135 139 150
0.404435 -0.078049 1.853011 138 142 153
0.406208 -0.078049 1.853011 139 143 154
0.407914 -0.078036 1.852702 141 145 156
0.409522 -0.078004 1.851953 142 146 157
0.411074 -0.077962 1.850959 144 148 159
0.412777 -0.077949 1.850651 145 149 160
0.414272 -0.077897 1.849412 145 149 160
0.415881 -0.077867 1.848696 146 150 161
0.417614 -0.077860 1.848533 145 150 158
0.419121 -0.077812 1.847379 145 150 158
0.420711 -0.077778 1.846593 144 149 157
0.422287 -0.077743 1.845757 142 147 155
0.423890 -0.077713 1.845043 142 147 155
0.425520 -0.077688 1.844453 141 146 154
0.427067 -0.077648 1.843507 141 146 154
0.428666 -0.077619 1.842795 140 145 153
0.430193 -0.077576 1.841780 138 144 152
0.431768 -0.077542 1.840979 139 145 153
0.433480 -0.077533 1.840766 139 145 153
0.435206 -0.077527 1.840614 139 145 153
0.436764 -0.077490 1.839753 140 146 154
0.438284 -0.077448 1.838741 140 146 154
0.440044 -0.077448 1.838741 141 147 155
0.441714 -0.077432 1.838367 140 146 154
0.443320 -0.077405 1.837730 142 147 155
0.445080 -0.077405 1.837730 142 147 155
0.446839 -0.077405 1.837730 142 147 155
0.448524 -0.077392 1.837427 143 148 156
0.450283 -0.077392 1.837427 144 149 157
0.452117 -0.077405 1.837730 146 151 159
0.453876 -0.077405 1.837730 148 153 161
0.455635 -0.077405 1.837730 150 155 163
0.457447 -0.077414 1.837942 150 155 163
0.459153 -0.077405 1.837730 149 154 162
0.461128 -0.077441 1.838589 149 154 161
0.462926 -0.077448 1.838741 148 153 160
0.464686 -0.077448 1.838741 147 153 160
0.466626 -0.077478 1.839449 144 150 157
0.468464 -0.077490 1.839753 142 148 155
0.470226 -0.077490 1.839753 141 147 154
0.472151 -0.077517 1.840391 140 146 153
0.474009 -0.077533 1.840766 139 145 152
0.475716 -0.077524 1.840553 138 144 151
0.477289 -0.077493 1.839824 139 145 152
0.479216 -0.077520 1.840462 138 144 151
0.480978 -0.077520 1.840462 139 145 152
0.482740 -0.077520 1.840462 139 148 154
0.484315 -0.077490 1.839753 141 150 156
0.486076 -0.077490 1.839753 142 151 157
0.487837 -0.077490 1.839753 144 153 159
0.489598 -0.077490 1.839753 148 154 161
0.491335 -0.077487 1.839662 149 155 162
0.493039 -0.077478 1.839449 150 156 163
0.494781 -0.077475 1.839378 150 156 163
0.496561 -0.077478 1.839449 151 157 164
0.498322 -0.077478 1.839449 151 157 164
0.500107 -0.077481 1.839540 151 157 164
0.501926 -0.077490 1.839753 151 157 164
0.503882 -0.077520 1.840462 151 157 164
0.505824 -0.077548 1.841121 152 158 165
0.507769 -0.077576 1.841780 152 158 165
0.509872 -0.077628 1.843009 153 159 166
0.511774 -0.077648 1.843507 154 160 167
0.513644 -0.077664 1.843883 155 161 168
0.515773 -0.077719 1.845186 155 161 168
0.517925 -0.077777 1.846562 156 162 169
0.519693 -0.077777 1.846562 156 162 169
0.521259 -0.077747 1.845848 156 162 169
0.522939 -0.077734 1.845543 155 161 168
0.524706 -0.077734 1.845543 155 161 168
0.526743 -0.077774 1.846491 154 160 167
0.528823 -0.077820 1.847583 154 160 167
0.530592 -0.077820 1.847583 152 158 165
0.532361 -0.077820 1.847583 151 157 164
0.534129 -0.077820 1.847583 150 156 163
0.535711 -0.077793 1.846939 150 156 163
0.537521 -0.077799 1.847082 150 156 164
0.539435 -0.077820 1.847583 151 157 165
0.541234 -0.077824 1.847685 152 158 166
0.543273 -0.077863 1.848604 152 158 166
0.545042 -0.077863 1.848604 153 159 167
0.547178 -0.077915 1.849842 153 159 167
0.549098 -0.077936 1.850344 154 160 168
0.550960 -0.077949 1.850651 155 161 169
0.552732 -0.077949 1.850651 155 161 169
0.554504 -0.077949 1.850651 156 162 170
0.556060 -0.077919 1.849934 156 162 170
0.557954 -0.077936 1.850344 157 163 171
0.559540 -0.077911 1.849729 158 164 172
0.561279 -0.077906 1.849627 158 164 172
0.563050 -0.077906 1.849627 158 164 172
0.565362 -0.077981 1.851399 157 163 171
0.229959 -0.098882 2.402235 128 154 160
0.219587 -0.093488 2.271175 132 158 164
0.214279 -0.090333 2.194537 147 163 172
0.211716 -0.088386 2.147245 149 165 174
0.210373 -0.086981 2.113107 155 165 176
0.210632 -0.086259 2.095556 157 167 178
0.211557 -0.085820 2.084904 158 166 176
0.212440 -0.085373 2.074038 159 167 177
0.213676 -0.085075 2.066793 158 166 176
0.215528 -0.085025 2.065580 157 165 175
0.217070 -0.084854 2.061440 157 162 173
0.218222 -0.084536 2.053715 155 160 171
0.219473 -0.084262 2.047049 153 157 168
0.220649 -0.083964 2.039804 149 153 164
0.222283 -0.083844 2.036883 146 150 163
0.223953 -0.083739 2.034342 143 147 160
0.225626 -0.083637 2.031869 140 145 158
0.227081 -0.083457 2.027494 138 143 156
0.228717 -0.083346 2.024792 136 141 156
0.230418 -0.083260 2.022710 135 140 155
0.231919 -0.083104 2.018923 133 141 155
0.233380 -0.082937 2.014846 131 139 153
0.235004 -0.082829 2.012239 129 139 152
0.236624 -0.082722 2.009638 128 138 151
0.238275 -0.082628 2.007345 128 138 151
0.240024 -0.082568 2.005899 127 137 150
0.241930 -0.082563 2.005779 127 137 148
0.243463 -0.082432 2.002595 126 136 147
0.244991 -0.082302 1.999421 125 135 146
0.246529 -0.082176 1.996375 124 134 145
0.248032 -0.082041 1.993102 124 132 144
0.249583 -0.081924 1.990254 124 132 144
0.251242 -0.081844 1.988301 123 131 143
0.252822 -0.081739 1.985762 122 130 142
0.254209 -0.081575 1.981759 121 131 142
0.255742 -0.081459 1.978943 120 130 141
0.257271 -0.081343 1.976136 121 131 142
0.258834 -0.081240 1.973627 121 131 142
0.260462 -0.081158 1.971648 122 132 145
0.262187 -0.081108 1.970428 122 132 145
0.263809 -0.081027 1.968455 122 132 145
0.265326 -0.080915 1.965735 123 133 146
0.266862 -0.080810 1.963195 123 133 146
0.268324 -0.080685 1.960145 124 134 147
0.269821 -0.080571 1.957390 125 133 147
0.271393 -0.080482 1.955215 126 134 148
0.272818 -0.080350 1.952018 127 135 149
0.274406 -0.080268 1.950026 128 136 150
0.275926 -0.080168 1.947583 128 136 150
0.277564 -0.080102 1.945995 129 137 151
0.279094 -0.080007 1.943676 129 137 151
0.280685 -0.079930 1.941813 129 137 151
0.282380 -0.079884 1.940686 127 135 149
0.284073 -0.079838 1.939560 125 133 147
0.285656 -0.079761 1.937705 123 131 145
0.287170 -0.079667 1.935405 122 130 144
0.288789 -0.079602 1.933838 122 130 144
0.290363 -0.079526 1.931993 122 130 144
0.292001 -0.079469 1.930598 121 129 143
0.293680 -0.079423 1.929484 122 130 144
0.295237 -0.079345 1.927593 122 130 144
0.296843 -0.079281 1.926038 122 130 144
0.298317 -0.079183 1.923655 123 131 145
0.299874 -0.079108 1.921830 124 132 146
0.301471 -0.079044 1.920284 126 134 148
0.303126 -0.078996 1.919127 127 135 149
0.304753 -0.078942 1.917806 128 136 148
0.306422 -0.078899 1.916761 130 138 150
0.308010 -0.078836 1.915223 131 139 151
0.309595 -0.078773 1.913689 132 140 152
0.311177 -0.078710 1.912156 134 139 152
0.312775 -0.078651 1.910735 135 140 153
0.314559 -0.078640 1.910462 135 140 153
0.316252 -0.078606 1.909644 136 141 154
0.317663 -0.078503 1.907138 136 140 153
0.319179 -0.078427 1.905290 137 141 154
0.320720 -0.078358 1.903608 136 141 154
0.322230 -0.078282 1.901767 136 141 154
0.323830 -0.078228 1.900470 137 142 153
0.325427 -0.078175 1.899174 140 145 156
0.326994 -0.078115 1.897718 142 147 158
0.328605 -0.078066 1.896534 143 148 159
0.330206 -0.078016 1.895298 146 150 163
0.331710 -0.077943 1.893526 146 150 163
0.333258 -0.077881 1.892026 147 151 164
0.334775 -0.077813 1.890367 146 150 163
0.336357 -0.077760 1.889085 147 151 164
0.337888 -0.077696 1.887539 147 151 164
0.339427 -0.077635 1.886048 146 150 163
0.340992 -0.077580 1.884719 146 150 163
0.342564 -0.077528 1.883444 146 150 161
0.344038 -0.077453 1.881642 145 149 160
0.345605 -0.077401 1.880372 145 149 160
0.347171 -0.077349 1.879103 145 149 160
0.348833 -0.077319 1.878364 144 148 159
0.350424 -0.077273 1.877257 144 148 159
0.351954 -0.077214 1.875835 143 147 158
0.353512 -0.077162 1.874572 140 144 155
0.355157 -0.077130 1.873784 139 143 154
0.356751 -0.077087 1.872735 138 142 153
0.358373 -0.077050 1.871843 138 142 153
0.359913 -0.076996 1.870534 139 143 154
0.361471 -0.076947 1.869331 139 143 154
0.363017 -0.076895 1.868078 139 143 154
0.364662 -0.076865 1.867347 139 143 154
0.366204 -0.076814 1.866096 137 141 152
0.367857 -0.076786 1.865419 139 140 152
0.369591 -0.076775 1.865159 139 140 152
0.371128 -0.076724 1.863911 137 141 152
0.372798 -0.076700 1.863340 137 141 152
0.374436 -0.076670 1.862613 136 140 151
0.375947 -0.076615 1.861265 137 141 152
0.377571 -0.076583 1.860488 136 140 151
0.379299 -0.076572 1.860229 137 141 152
0.380974 -0.076551 1.859712 136 140 151
0.382647 -0.076529 1.859194 136 140 151
0.384310 -0.076506 1.858626 135 139 150
0.385939 -0.076476 1.857903 135 139 150
0.387556 -0.076444 1.857128 134 138 149
0.389225 -0.076423 1.856613 133 137 148
0.390894 -0.076402 1.856097 130 135 146
0.392660 -0.076400 1.856046 129 134 145
0.394229 -0.076360 1.855067 128 133 144
0.396004 -0.076360 1.855067 129 134 145
0.397560 -0.076317 1.854038 130 135 146
0.399334 -0.076317 1.854038 131 136 147
0.400987 -0.076294 1.853473 134 138 149
0.402549 -0.076254 1.852497 136 140 151
0.404110 -0.076214 1.851523 138 142 153
0.405837 -0.076205 1.851317 140 144 155
0.407530 -0.076190 1.850959 142 146 157
0.409178 -0.076167 1.850395 143 147 158
0.410790 -0.076138 1.849678 144 148 159
0.412389 -0.076106 1.848911 144 148 159
0.414010 -0.076079 1.848247 145 149 160
0.415699 -0.076064 1.847889 144 148 159
0.417341 -0.076041 1.847327 144 149 157
0.418890 -0.076001 1.846358 143 148 156
0.420437 -0.075961 1.845390 141 146 154
0.422075 -0.075938 1.844830 140 145 153
0.423642 -0.075903 1.843965 139 144 152
0.425243 -0.075873 1.843253 137 142 150
0.426843 -0.075844 1.842542 135 140 148
0.428430 -0.075813 1.841780 134 139 147
0.429956 -0.075771 1.840766 133 139 147
0.431552 -0.075742 1.840057 133 139 147
0.433242 -0.075729 1.839753 133 139 147
0.435003 -0.075729 1.839753 134 140 148
0.436536 -0.075690 1.838792 134 140 148
0.438248 -0.075681 1.838589 135 141 149
0.439802 -0.075646 1.837730 135 141 149
0.441537 -0.075642 1.837629 135 141 149
0.443077 -0.075604 1.836720 136 141 149
0.444835 -0.075604 1.836720 136 141 149
0.446593 -0.075604 1.836720 138 143 151
0.448352 -0.075604 1.836720 139 144 152
0.450110 -0.075604 1.836720 140 145 153
0.451868 -0.075604 1.836720 142 147 155
0.453626 -0.075604 1.836720 144 149 157
0.455385 -0.075604 1.836720 144 149 157
0.457394 -0.075646 1.837730 145 150 158
0.459153 -0.075646 1.837730 144 149 157
0.460913 -0.075646 1.837730 143 148 155
0.462672 -0.075646 1.837730 141 146 153
0.464431 -0.075646 1.837730 138 144 151
0.466280 -0.075661 1.838084 137 143 150
0.468207 -0.075688 1.838741 136 142 149
0.469967 -0.075688 1.838741 135 141 148
0.471844 -0.075706 1.839196 135 141 148
0.473657 -0.075715 1.839399 134 140 147
0.475378 -0.075708 1.839247 135 141 148
0.477008 -0.075688 1.838741 135 141 148
0.478768 -0.075688 1.838741 135 141 148
0.480647 -0.075706 1.839196 135 141 148
0.482288 -0.075688 1.838741 134 143 149
0.484048 -0.075688 1.838741 137 146 152
0.485809 -0.075688 1.838741 138 147 153
0.487435 -0.075667 1.838236 141 150 156
0.489194 -0.075667 1.838236 144 150 157
0.490914 -0.075661 1.838084 146 152 159
0.492619 -0.075652 1.837882 147 153 160
0.494338 -0.075646 1.837730 147 153 160
0.496097 -0.075646 1.837730 147 153 160
0.497856 -0.075646 1.837730 146 152 159
0.499615 -0.075646 1.837730 147 153 160
0.501512 -0.075667 1.838236 146 152 159
0.503286 -0.075669 1.838286 147 153 160
0.505240 -0.075698 1.838994 148 154 161
0.507210 -0.075729 1.839753 149 155 162
0.509153 -0.075756 1.840411 150 156 163
0.511154 -0.075792 1.841273 151 157 164
0.513072 -0.075815 1.841831 152 158 165
0.515176 -0.075865 1.843050 152 158 165
0.517140 -0.075894 1.843761 153 159 166
0.518819 -0.075882 1.843456 153 159 166
0.520540 -0.075875 1.843304 152 158 165
0.522305 -0.075875 1.843304 152 158 165
0.524069 -0.075875 1.843304 151 157 164
0.525964 -0.075894 1.843761 150 156 163
0.528079 -0.075944 1.844982 149 155 162
0.529948 -0.075959 1.845339 148 154 161
0.531714 -0.075959 1.845339 147 153 160
0.533407 -0.075949 1.845084 147 153 160
0.534967 -0.075919 1.844372 147 153 160
0.536717 -0.075917 1.844321 148 154 162
0.538631 -0.075938 1.844830 149 155 163
0.540547 -0.075959 1.845339 151 157 165
0.542313 -0.075959 1.845339 151 157 165
0.544080 -0.075959 1.845339 152 158 166
0.546042 -0.075986 1.846001 152 158 166
0.547915 -0.076001 1.846358 153 159 167
0.549834 -0.076022 1.846868 154 160 168
0.551755 -0.076043 1.847379 155 161 169
0.553217 -0.076001 1.846358 155 161 169
0.554985 -0.076001 1.846358 156 162 170
0.556752 -0.076001 1.846358 156 162 170
0.558520 -0.076001 1.846358 156 162 170
0.560365 -0.076012 1.846613 157 163 171
0.562210 -0.076022 1.846868 157 163 171
0.564446 -0.076085 1.848400 158 164 172
0.240526 -0.104145 2.590330 127 153 161
0.226463 -0.097056 2.413995 129 154 158
0.217805 -0.092402 2.298250 132 157 161
0.212308 -0.089170 2.217848 142 158 165
0.209043 -0.086929 2.162118 148 164 171
0.207363 -0.085385 2.123713 156 165 172
0.206585 -0.084238 2.095201 158 167 174
0.207081 -0.083629 2.080039 162 167 175
0.208203 -0.083281 2.071391 162 167 175
0.209590 -0.083045 2.065516 161 167 175
0.210850 -0.082764 2.058520 160 166 174
0.212372 -0.082589 2.054181 159 164 175
0.214385 -0.082607 2.054623 156 161 172
0.216054 -0.082493 2.051798 152 157 168
0.217390 -0.082256 2.045884 150 155 166
0.218690 -0.082009 2.039742 145 150 163
0.219969 -0.081758 2.033513 141 146 159
0.221600 -0.081642 2.030622 139 144 157
0.223247 -0.081534 2.027925 136 141 154
0.224861 -0.081415 2.024976 133 138 151
0.226470 -0.081297 2.022037 133 138 151
0.228161 -0.081210 2.019874 133 138 153
0.229923 -0.081149 2.018362 133 138 153
0.231451 -0.081008 2.014846 131 139 153
0.232860 -0.080828 2.010363 131 139 153
0.234446 -0.080711 2.007465 129 137 151
0.236028 -0.080595 2.004576 128 136 150
0.237747 -0.080527 2.002895 127 137 150
0.239464 -0.080460 2.001216 126 136 149
0.241321 -0.080440 2.000737 126 136 147
0.242765 -0.080284 1.996853 126 136 147
0.244304 -0.080162 1.993816 127 135 147
0.245830 -0.080038 1.990716 126 134 146
0.247382 -0.079923 1.987875 126 134 146
0.248961 -0.079819 1.985290 125 133 145
0.250526 -0.079713 1.982641 123 133 144
0.252192 -0.079640 1.980820 122 132 143
0.253578 -0.079480 1.976837 121 131 144
0.255108 -0.079367 1.974035 121 131 144
0.256634 -0.079255 1.971241 120 130 143
0.258232 -0.079166 1.969035 121 131 144
0.259867 -0.079090 1.967147 121 131 144
0.261539 -0.079026 1.965562 121 131 144
0.263158 -0.078947 1.963599 122 132 145
0.264664 -0.078836 1.960835 122 132 145
0.266167 -0.078725 1.958078 123 133 146
0.267665 -0.078615 1.955330 124 134 147
0.269192 -0.078514 1.952828 124 134 147
0.270696 -0.078408 1.950196 125 135 148
0.272193 -0.078302 1.947549 127 135 149
0.273775 -0.078221 1.945542 128 136 150
0.275402 -0.078155 1.943879 128 136 150
0.276921 -0.078058 1.941486 128 136 150
0.278519 -0.077985 1.939672 128 136 150
0.280153 -0.077923 1.938131 126 134 148
0.281775 -0.077859 1.936526 125 133 147
0.283399 -0.077796 1.934957 122 130 144
0.284939 -0.077711 1.932842 122 130 144
0.286508 -0.077634 1.930944 122 130 144
0.288094 -0.077564 1.929183 121 131 144
0.289701 -0.077500 1.927593 121 131 144
0.291345 -0.077446 1.926260 121 131 144
0.293005 -0.077398 1.925050 122 132 145
0.294658 -0.077348 1.923810 124 132 146
0.296143 -0.077255 1.921499 125 133 147
0.297726 -0.077188 1.919843 126 134 148
0.299311 -0.077123 1.918224 128 136 150
0.300917 -0.077064 1.916761 129 137 151
0.302509 -0.077002 1.915223 130 138 152
0.304104 -0.076942 1.913721 131 139 151
0.305773 -0.076901 1.912703 133 141 153
0.307428 -0.076857 1.911609 136 141 154
0.308905 -0.076769 1.909426 137 142 155
0.310555 -0.076725 1.908335 137 142 155
0.312204 -0.076682 1.907247 138 143 156
0.313967 -0.076666 1.906866 137 142 153
0.315675 -0.076638 1.906159 137 142 153
0.317084 -0.076538 1.903662 138 142 153
0.318653 -0.076477 1.902146 138 142 153
0.320218 -0.076416 1.900632 137 142 153
0.321754 -0.076348 1.898958 137 142 153
0.323342 -0.076294 1.897611 140 144 155
0.324901 -0.076234 1.896104 142 146 157
0.326457 -0.076173 1.894599 144 148 159
0.328010 -0.076113 1.893097 146 150 161
0.329589 -0.076059 1.891758 146 151 159
0.331109 -0.075992 1.890100 147 152 160
0.332655 -0.075932 1.888605 148 152 163
0.334199 -0.075872 1.887112 148 152 163
0.335878 -0.075844 1.886399 149 153 164
0.337469 -0.075795 1.885197 148 152 163
0.339000 -0.075734 1.883678 148 152 163
0.340541 -0.075676 1.882225 147 151 162
0.342073 -0.075616 1.880742 146 150 161
0.343622 -0.075561 1.879368 145 149 160
0.345198 -0.075512 1.878153 145 149 160
0.346777 -0.075465 1.876972 145 149 160
0.348414 -0.075430 1.876108 144 148 159
0.349893 -0.075362 1.874415 143 147 158
0.351432 -0.075307 1.873049 143 147 158
0.353126 -0.075286 1.872525 140 144 155
0.354634 -0.075225 1.871026 138 142 153
0.356310 -0.075201 1.870419 137 141 152
0.357960 -0.075172 1.869686 138 142 153
0.359516 -0.075123 1.868474 138 142 153
0.361117 -0.075084 1.867504 138 142 153
0.362708 -0.075043 1.866492 137 141 152
0.364328 -0.075009 1.865638 137 141 152
0.365886 -0.074962 1.864472 137 141 152
0.367502 -0.074928 1.863620 136 140 151
0.369159 -0.074902 1.862976 136 140 151
0.370678 -0.074848 1.861648 135 140 151
0.372340 -0.074824 1.861047 134 139 150
0.373975 -0.074795 1.860322 134 139 150
0.375514 -0.074747 1.859122 133 138 149
0.377161 -0.074721 1.858471 132 137 148
0.378883 -0.074709 1.858192 131 136 147
0.380508 -0.074679 1.857438 130 135 146
0.382241 -0.074670 1.857221 129 134 145
0.383851 -0.074638 1.856406 128 133 144
0.385414 -0.074596 1.855376 128 133 144
0.387132 -0.074585 1.855098 127 132 143
0.388750 -0.074555 1.854347 127 132 143
0.390525 -0.074555 1.854347 126 131 142
0.392220 -0.074540 1.853966 126 131 142
0.393792 -0.074501 1.853011 126 131 142
0.395412 -0.074472 1.852292 127 132 143
0.397119 -0.074460 1.851984 126 134 144
0.398737 -0.074431 1.851266 129 137 147
0.400510 -0.074431 1.851266 134 139 150
0.402215 -0.074419 1.850959 136 141 152
0.403770 -0.074379 1.849965 138 144 152
0.405377 -0.074349 1.849218 139 145 153
0.407100 -0.074340 1.849003 140 146 154
0.408691 -0.074308 1.848195 142 148 156
0.410234 -0.074266 1.847174 143 149 157
0.412002 -0.074266 1.847174 143 149 157
0.413521 -0.074222 1.846062 143 149 157
0.415080 -0.074184 1.845135 142 148 156
0.416839 -0.074183 1.845104 141 147 155
0.418381 -0.074144 1.844117 140 146 154
0.419915 -0.074103 1.843100 139 145 153
0.421679 -0.074103 1.843100 137 143 151
0.423259 -0.074070 1.842298 134 140 148
0.424887 -0.074047 1.841709 132 138 146
0.426467 -0.074015 1.840918 130 136 144
0.428029 -0.073980 1.840057 129 135 143
0.429554 -0.073940 1.839045 128 134 142
0.431127 -0.073907 1.838246 128 134 142
0.432837 -0.073899 1.838033 126 135 142
0.434560 -0.073893 1.837882 127 136 143
0.436116 -0.073858 1.837023 127 136 143
0.437634 -0.073818 1.836014 127 136 143
0.439391 -0.073818 1.836014 130 136 144
0.440907 -0.073777 1.835006 131 137 145
0.442663 -0.073777 1.835006 131 137 145
0.444420 -0.073777 1.835006 132 138 146
0.446348 -0.073806 1.835712 133 139 147
0.447985 -0.073786 1.835218 135 141 149
0.449690 -0.073777 1.835006 137 143 151
0.451533 -0.073791 1.835359 139 145 153
0.453377 -0.073806 1.835712 140 145 153
0.455210 -0.073818 1.836014 141 146 154
0.456967 -0.073818 1.836014 140 146 154
0.458725 -0.073818 1.836014 139 145 153
0.460482 -0.073818 1.836014 135 144 151
0.462240 -0.073818 1.836014 133 142 149
0.463997 -0.073818 1.836014 131 140 147
0.465880 -0.073838 1.836509 131 140 147
0.467769 -0.073858 1.837023 131 140 147
0.469709 -0.073887 1.837730 130 139 146
0.471468 -0.073887 1.837730 130 139 146
0.473227 -0.073887 1.837730 130 139 146
0.474986 -0.073887 1.837730 130 139 146
0.476580 -0.073861 1.837094 130 139 146
0.478413 -0.073873 1.837377 130 139 146
0.480264 -0.073887 1.837730 130 139 146
0.481838 -0.073858 1.837023 131 142 148
0.483540 -0.073850 1.836811 134 145 151
0.485275 -0.073846 1.836720 137 146 153
0.486939 -0.073832 1.836367 139 148 155
0.488603 -0.073818 1.836014 141 150 157
0.490361 -0.073818 1.836014 142 151 158
0.492308 -0.073846 1.836720 143 152 158
0.493876 -0.073818 1.836014 143 152 158
0.495729 -0.073832 1.836367 143 152 158
0.497582 -0.073846 1.836720 143 152 158
0.499283 -0.073838 1.836509 142 151 157
0.500906 -0.073818 1.836014 143 152 158
0.502683 -0.073821 1.836085 143 152 158
0.504699 -0.073858 1.837023 145 154 160
0.506633 -0.073884 1.837660 146 155 161
0.508554 -0.073907 1.838246 147 156 162
0.510535 -0.073940 1.839045 147 156 162
0.512324 -0.073944 1.839146 148 157 163
0.514481 -0.074001 1.840563 148 157 163
0.516385 -0.074021 1.841070 148 157 163
0.518147 -0.074021 1.841070 148 157 163
0.519910 -0.074021 1.841070 148 157 163
0.521672 -0.074021 1.841070 147 156 162
0.523434 -0.074021 1.841070 146 155 161
0.525457 -0.074058 1.841983 145 154 160
0.527337 -0.074074 1.842389 144 153 159
0.529305 -0.074103 1.843100 143 152 158
0.531040 -0.074099 1.842999 143 152 158
0.532540 -0.074062 1.842085 143 152 158
0.534118 -0.074036 1.841445 143 152 158
0.535860 -0.074033 1.841375 146 152 159
0.537830 -0.074062 1.842085 147 153 160
0.539593 -0.074062 1.842085 148 154 161
0.541357 -0.074062 1.842085 149 155 162
0.543141 -0.074065 1.842156 150 156 163
0.545211 -0.074106 1.843192 151 157 164
0.547187 -0.074135 1.843904 151 157 164
0.549015 -0.074144 1.844117 152 158 165
0.550781 -0.074144 1.844117 153 159 166
0.552546 -0.074144 1.844117 153 159 166
0.554070 -0.074111 1.843314 154 160 167
0.555770 -0.074103 1.843100 154 160 167
0.557565 -0.074107 1.843202 153 159 166
0.559607 -0.074144 1.844117 153 159 166
0.561568 -0.074169 1.844758 153 159 166
0.563844 -0.074237 1.846429 153 159 166
0.244406 -0.105480 2.687526 124 156 163
0.225534 -0.096322 2.454169 130 156 164
0.212297 -0.089734 2.286318 132 158 166
0.208171 -0.087092 2.219011 135 160 164
0.206807 -0.085647 2.182203 139 164 168
0.205360 -0.084198 2.145260 150 166 173
0.204698 -0.083095 2.117176 153 169 176
0.204447 -0.082180 2.093849 159 168 175
0.204708 -0.081486 2.076163 159 168 175
0.205813 -0.081138 2.067304 162 167 175
0.207420 -0.080993 2.063603 162 167 175
0.208983 -0.080833 2.059535 160 166 174
0.210274 -0.080572 2.052895 159 165 173
0.211791 -0.080402 2.048554 156 161 172
0.213621 -0.080353 2.047300 151 156 167
0.215172 -0.080200 2.043420 148 153 164
0.216585 -0.080000 2.038311 144 149 160
0.217958 -0.079788 2.032919 140 145 158
0.219312 -0.079574 2.027445 136 141 154
0.220980 -0.079475 2.024940 134 139 152
0.222595 -0.079360 2.022000 130 135 148
0.224180 -0.079236 2.018850 129 134 147
0.225903 -0.079163 2.016973 128 133 146
0.227510 -0.079050 2.014106 129 134 149
0.229283 -0.078997 2.012747 128 133 148
0.230779 -0.078849 2.008997 127 135 149
0.232147 -0.078661 2.004203 128 136 150
0.233793 -0.078570 2.001875 128 136 150
0.235422 -0.078474 1.999432 128 136 150
0.237023 -0.078370 1.996793 125 135 148
0.238735 -0.078305 1.995125 124 134 147
0.240587 -0.078286 1.994648 124 134 145
0.242070 -0.078149 1.991143 124 134 145
0.243563 -0.078016 1.987769 126 134 146
0.245116 -0.077905 1.984936 126 134 146
0.246665 -0.077794 1.982111 125 133 145
0.248209 -0.077684 1.979295 124 132 144
0.249882 -0.077615 1.977539 121 131 142
0.251553 -0.077546 1.975797 120 130 141
0.252856 -0.077366 1.971206 119 129 142
0.254342 -0.077245 1.968108 119 129 142
0.255865 -0.077136 1.965331 119 129 142
0.257526 -0.077070 1.963657 120 130 143
0.259172 -0.077000 1.961882 120 130 143
0.260854 -0.076942 1.960409 121 131 144
0.262367 -0.076836 1.957700 122 132 145
0.263889 -0.076734 1.955089 123 133 146
0.265514 -0.076662 1.953273 124 134 147
0.267009 -0.076555 1.950538 124 134 147
0.268500 -0.076448 1.947810 125 135 148
0.270102 -0.076374 1.945916 125 135 148
0.271628 -0.076279 1.943506 127 135 149
0.273107 -0.076173 1.940798 126 134 148
0.274598 -0.076071 1.938210 127 135 149
0.276214 -0.076005 1.936526 127 135 149
0.277842 -0.075943 1.934957 126 134 148
0.279484 -0.075886 1.933502 125 133 147
0.281099 -0.075823 1.931882 123 131 145
0.282726 -0.075763 1.930364 123 131 145
0.284226 -0.075671 1.928004 124 132 146
0.285895 -0.075624 1.926815 125 133 147
0.287424 -0.075541 1.924696 125 135 148
0.289093 -0.075496 1.923544 125 135 148
0.290759 -0.075450 1.922383 126 136 149
0.292385 -0.075395 1.920980 127 137 150
0.293983 -0.075333 1.919402 132 140 154
0.295445 -0.075238 1.916970 134 142 156
0.297018 -0.075171 1.915278 134 142 156
0.298603 -0.075109 1.913689 135 143 157
0.300246 -0.075062 1.912484 135 143 157
0.301904 -0.075019 1.911391 135 143 157
0.303543 -0.074971 1.910189 135 143 155
0.305136 -0.074914 1.908717 136 144 156
0.306709 -0.074852 1.907138 138 143 156
0.308289 -0.074792 1.905616 139 144 157
0.309878 -0.074735 1.904172 139 144 157
0.311635 -0.074720 1.903771 140 145 158
0.313368 -0.074698 1.903229 139 144 155
0.315100 -0.074677 1.902687 139 144 155
0.316507 -0.074579 1.900200 140 144 155
0.318019 -0.074507 1.898365 139 143 154
0.319637 -0.074461 1.897180 139 144 155
0.321198 -0.074402 1.895674 139 144 155
0.322756 -0.074343 1.894170 141 145 156
0.324367 -0.074296 1.892990 144 148 159
0.325878 -0.074228 1.891244 146 150 161
0.327418 -0.074167 1.889683 147 151 162
0.329058 -0.074128 1.888712 148 153 161
0.330679 -0.074087 1.887645 149 154 162
0.332229 -0.074029 1.886186 149 153 164
0.333728 -0.073961 1.884453 150 154 165
0.335343 -0.073920 1.883391 150 154 165
0.336956 -0.073878 1.882331 149 153 164
0.338550 -0.073833 1.881176 149 153 164
0.339985 -0.073753 1.879156 148 152 163
0.341579 -0.073709 1.878027 147 151 162
0.343178 -0.073666 1.876941 145 149 160
0.344704 -0.073609 1.875466 144 148 159
0.346227 -0.073551 1.873994 144 148 159
0.347943 -0.073534 1.873574 143 147 158
0.349462 -0.073477 1.872105 143 147 158
0.350999 -0.073423 1.870743 141 145 156
0.352592 -0.073382 1.869697 140 144 155
0.354202 -0.073345 1.868746 138 142 153
0.355913 -0.073329 1.868338 136 140 151
0.357548 -0.073297 1.867535 136 140 151
0.359111 -0.073251 1.866367 135 139 150
0.360724 -0.073216 1.865471 135 139 150
0.362300 -0.073174 1.864389 135 139 150
0.363894 -0.073136 1.863412 134 138 149
0.365480 -0.073096 1.862405 134 138 149
0.367224 -0.073088 1.862208 133 137 148
0.368737 -0.073035 1.860850 133 137 148
0.370230 -0.072978 1.859401 131 136 147
0.371913 -0.072959 1.858915 131 136 147
0.373562 -0.072933 1.858264 130 135 146
0.375130 -0.072893 1.857221 130 135 146
0.376795 -0.072871 1.856664 129 134 145
0.378477 -0.072852 1.856200 128 133 144
0.380233 -0.072848 1.856097 126 131 142
0.381804 -0.072809 1.855098 125 130 141
0.383382 -0.072772 1.854141 123 128 139
0.385040 -0.072749 1.853576 123 128 139
0.386698 -0.072728 1.853021 123 128 139
0.388470 -0.072727 1.853011 123 128 139
0.390049 -0.072691 1.852087 122 127 138
0.391781 -0.072683 1.851892 123 128 139
0.393366 -0.072649 1.851010 124 129 140
0.394931 -0.072611 1.850037 126 131 142
0.396695 -0.072609 1.850006 126 134 144
0.398252 -0.072570 1.849013 128 136 146
0.400042 -0.072574 1.849105 133 138 149
0.401781 -0.072568 1.848962 134 139 150
0.403359 -0.072534 1.848083 137 143 151
0.405025 -0.072515 1.847613 139 145 153
0.406652 -0.072490 1.846970 140 146 154
0.408377 -0.072483 1.846776 141 147 155
0.409962 -0.072450 1.845950 142 148 156
0.411709 -0.072447 1.845858 142 148 156
0.413199 -0.072398 1.844626 142 148 156
0.414789 -0.072367 1.843843 140 146 154
0.416340 -0.072330 1.842897 139 145 153
0.418093 -0.072328 1.842846 138 144 152
0.419637 -0.072290 1.841882 136 142 150
0.421377 -0.072286 1.841780 133 139 147
0.422931 -0.072251 1.840867 130 136 144
0.424649 -0.072243 1.840675 129 135 143
0.426197 -0.072207 1.839753 127 133 141
0.427725 -0.072168 1.838751 124 130 138
0.429270 -0.072132 1.837831 123 129 137
0.430857 -0.072103 1.837094 123 129 137
0.432551 -0.072092 1.836821 121 130 137
0.434298 -0.072090 1.836771 122 131 138
0.435807 -0.072049 1.835722 123 132 139
0.437346 -0.072013 1.834805 123 132 139
0.439085 -0.072010 1.834735 126 132 140
0.440812 -0.072005 1.834614 127 133 141
0.442591 -0.072009 1.834704 128 134 142
0.444347 -0.072009 1.834704 129 135 143
0.446103 -0.072009 1.834704 130 136 144
0.447859 -0.072009 1.834704 132 138 146
0.449616 -0.072009 1.834704 133 139 147
0.451372 -0.072009 1.834704 134 140 148
0.453128 -0.072009 1.834704 136 141 149
0.454977 -0.072023 1.835077 137 142 150
0.456892 -0.072048 1.835712 136 142 150
0.458420 -0.072012 1.834795 135 141 149
0.460166 -0.072011 1.834755 132 141 148
0.461935 -0.072013 1.834805 131 140 147
0.463692 -0.072013 1.834805 130 139 146
0.465448 -0.072013 1.834805 128 137 144
0.467435 -0.072048 1.835712 128 137 144
0.469218 -0.072052 1.835813 128 137 144
0.470976 -0.072052 1.835813 128 137 144
0.472733 -0.072052 1.835813 128 137 144
0.474491 -0.072052 1.835813 127 136 143
0.476248 -0.072052 1.835813 128 137 144
0.478005 -0.072052 1.835813 128 137 144
0.479786 -0.072056 1.835903 129 138 145
0.481520 -0.072052 1.835813 130 141 147
0.483251 -0.072048 1.835712 133 144 150
0.484769 -0.072013 1.834805 135 144 151
0.486525 -0.072013 1.834805 137 146 153
0.488255 -0.072009 1.834704 137 146 153
0.490038 -0.072013 1.834805 138 147 154
0.491794 -0.072013 1.834805 138 147 153
0.493548 -0.072012 1.834795 138 147 153
0.495280 -0.072009 1.834704 138 147 153
0.497063 -0.072013 1.834805 138 147 153
0.498820 -0.072013 1.834805 138 147 153
0.500557 -0.072010 1.834735 138 147 153
0.502333 -0.072013 1.834805 138 147 153
0.504214 -0.072031 1.835258 140 149 155
0.506096 -0.072048 1.835712 141 150 156
0.507956 -0.072063 1.836085 142 151 157
0.509918 -0.072092 1.836821 143 152 158
0.511705 -0.072096 1.836922 143 152 158
0.513858 -0.072151 1.838337 143 152 158
0.515760 -0.072171 1.838842 143 152 158
0.517520 -0.072171 1.838842 144 153 159
0.519260 -0.072168 1.838771 143 152 158
0.521015 -0.072168 1.838751 143 152 158
0.522801 -0.072171 1.838842 142 151 157
0.524795 -0.072203 1.839662 142 151 157
0.526698 -0.072223 1.840158 141 150 156
0.528634 -0.072247 1.840766 140 149 155
0.530134 -0.072211 1.839854 139 148 154
0.531602 -0.072171 1.838842 139 148 154
0.533363 -0.072171 1.838842 140 149 155
0.535123 -0.072171 1.838842 143 149 156
0.536883 -0.072171 1.838842 144 150 157
0.538670 -0.072175 1.838933 145 151 158
0.540701 -0.072211 1.839854 146 152 159
0.542462 -0.072211 1.839854 146 152 159
0.544314 -0.072223 1.840158 147 153 160
0.546286 -0.072251 1.840867 149 155 162
0.548350 -0.072290 1.841882 149 155 162
0.550113 -0.072290 1.841882 149 155 162
0.551818 -0.072283 1.841689 150 156 163
0.553313 -0.072248 1.840796 149 155 162
0.555088 -0.072249 1.840837 149 155 162
0.556890 -0.072255 1.840969 149 155 162
0.558621 -0.072251 1.840867 149 155 162
0.560411 -0.072254 1.840959 149 155 162
0.562933 -0.072352 1.843446 149 155 162
0.226528 -0.096395 2.517431 137 156 166
0.212772 -0.089588 2.339670 139 158 168
0.205807 -0.085753 2.239511 145 159 169
0.201998 -0.083298 2.175400 148 162 172
0.201000 -0.082041 2.142565 153 163 172
0.201415 -0.081380 2.125306 156 166 175
0.201580 -0.080632 2.105773 162 167 178
0.201899 -0.079960 2.088225 163 168 179
0.202456 -0.079395 2.073459 164 169 177
0.203130 -0.078885 2.060157 164 169 177
0.204519 -0.078661 2.054308 162 167 175
0.206177 -0.078543 2.051232 161 166 174
0.207781 -0.078408 2.047688 159 165 173
0.209201 -0.078206 2.042421 155 161 169
0.210835 -0.078087 2.039306 150 155 166
0.212657 -0.078039 2.038063 147 152 163
0.214164 -0.077878 2.033847 143 148 159
0.215612 -0.077698 2.029155 139 144 155
0.217054 -0.077519 2.024486 136 141 154
0.218488 -0.077341 2.019825 131 136 149
0.220223 -0.077271 2.018008 128 133 146
0.221870 -0.077172 2.015417 126 131 144
0.223439 -0.077048 2.012178 124 132 144
0.225169 -0.076981 2.010423 123 131 143
0.226896 -0.076914 2.008672 126 131 146
0.228544 -0.076821 2.006260 126 131 146
0.230036 -0.076679 2.002534 125 133 147
0.231511 -0.076533 1.998715 125 133 147
0.233109 -0.076429 1.996018 123 133 146
0.234551 -0.076277 1.992033 123 133 146
0.236251 -0.076210 1.990290 123 133 146
0.237963 -0.076148 1.988679 124 134 147
0.239672 -0.076086 1.987060 124 134 145
0.241230 -0.075978 1.984229 124 134 145
0.242771 -0.075866 1.981301 124 134 145
0.244333 -0.075762 1.978592 123 133 144
0.245877 -0.075655 1.975785 124 132 144
0.247432 -0.075552 1.973103 121 129 141
0.249101 -0.075485 1.971358 118 128 139
0.250781 -0.075423 1.969731 118 128 139
0.252161 -0.075272 1.965793 118 128 141
0.253685 -0.075166 1.963023 118 128 141
0.255204 -0.075060 1.960260 120 130 143
0.256720 -0.074955 1.957505 121 131 144
0.258382 -0.074893 1.955901 121 131 144
0.260041 -0.074832 1.954300 121 131 144
0.261555 -0.074730 1.951642 123 133 146
0.263198 -0.074666 1.949969 124 134 147
0.264702 -0.074564 1.947299 125 135 148
0.266200 -0.074461 1.944626 124 134 147
0.267829 -0.074397 1.942941 125 135 148
0.269313 -0.074293 1.940235 124 134 147
0.270795 -0.074190 1.937547 126 134 148
0.272285 -0.074091 1.934957 126 134 148
0.273900 -0.074027 1.933278 126 134 148
0.275527 -0.073967 1.931714 125 133 147
0.277104 -0.073894 1.929818 124 132 146
0.278775 -0.073848 1.928593 124 132 146
0.280322 -0.073769 1.926537 124 132 146
0.281997 -0.073725 1.925383 126 134 148
0.283479 -0.073631 1.922935 127 135 149
0.285085 -0.073570 1.921355 128 136 150
0.286714 -0.073516 1.919942 129 139 152
0.288379 -0.073472 1.918796 132 142 155
0.290043 -0.073429 1.917652 134 144 157
0.291721 -0.073389 1.916618 135 145 158
0.293275 -0.073319 1.914785 139 144 159
0.294718 -0.073222 1.912254 140 145 160
0.296381 -0.073180 1.911172 139 147 161
0.298025 -0.073135 1.909982 139 147 161
0.299526 -0.073055 1.907900 141 146 161
0.301227 -0.073025 1.907105 141 146 161
0.302801 -0.072964 1.905518 140 145 158
0.304475 -0.072928 1.904584 140 145 158
0.306117 -0.072885 1.903456 140 145 158
0.307727 -0.072835 1.902146 140 145 158
0.309302 -0.072777 1.900632 141 145 156
0.311068 -0.072764 1.900308 140 144 155
0.312709 -0.072723 1.899228 140 144 155
0.314365 -0.072686 1.898247 140 144 155
0.315920 -0.072625 1.896674 139 143 154
0.317442 -0.072558 1.894921 140 144 155
0.318911 -0.072480 1.892872 140 144 155
0.320525 -0.072435 1.891705 140 144 155
0.322172 -0.072398 1.890742 143 147 158
0.323780 -0.072353 1.889566 146 150 161
0.325405 -0.072312 1.888498 147 151 162
0.326860 -0.072234 1.886463 149 153 164
0.328557 -0.072210 1.885835 149 154 162
0.330101 -0.072153 1.884347 150 155 163
0.331649 -0.072098 1.882893 150 155 163
0.333315 -0.072068 1.882119 149 154 162
0.334911 -0.072024 1.880964 149 154 162
0.336444 -0.071967 1.879473 149 154 162
0.337960 -0.071906 1.877900 148 152 163
0.339514 -0.071855 1.876551 148 152 163
0.341037 -0.071797 1.875045 146 150 161
0.342599 -0.071748 1.873774 144 148 159
0.344182 -0.071705 1.872630 145 146 160
0.345801 -0.071669 1.871686 144 145 159
0.347392 -0.071627 1.870607 141 145 158
0.348980 -0.071586 1.869519 140 144 157
0.350585 -0.071548 1.868537 139 143 156
0.352169 -0.071506 1.867451 137 141 154
0.353947 -0.071504 1.867399 134 138 149
0.355482 -0.071454 1.866075 134 138 149
0.357003 -0.071401 1.864691 133 137 148
0.358688 -0.071381 1.864171 133 137 148
0.360202 -0.071327 1.862768 133 137 148
0.361711 -0.071273 1.861358 133 137 148
0.363454 -0.071266 1.861161 133 137 148
0.365039 -0.071227 1.860156 131 135 146
0.366628 -0.071190 1.859184 130 134 145
0.368389 -0.071186 1.859091 129 133 144
0.369963 -0.071147 1.858057 128 133 144
0.371556 -0.071111 1.857128 128 133 144
0.373182 -0.071082 1.856375 127 132 143
0.374695 -0.071032 1.855067 127 132 143
0.376450 -0.071028 1.854964 125 130 141
0.378037 -0.070993 1.854038 124 129 140
0.379790 -0.070989 1.853936 124 129 140
0.381432 -0.070964 1.853288 122 127 138
0.383127 -0.070950 1.852908 121 126 137
0.384698 -0.070912 1.851933 120 125 136
0.386287 -0.070878 1.851051 121 126 137
0.388018 -0.070871 1.850856 120 125 136
0.389596 -0.070836 1.849934 121 126 137
0.391345 -0.070832 1.849832 121 126 137
0.392920 -0.070796 1.848911 122 130 140
0.394668 -0.070793 1.848809 124 132 142
0.396241 -0.070757 1.847889 125 133 143
0.397988 -0.070753 1.847787 127 135 145
0.399757 -0.070753 1.847787 128 137 144
0.401315 -0.070716 1.846817 130 139 146
0.402871 -0.070679 1.845848 133 142 149
0.404616 -0.070675 1.845746 136 145 152
0.406165 -0.070637 1.844758 137 146 153
0.407904 -0.070633 1.844636 137 146 153
0.409464 -0.070597 1.843710 138 147 154
0.411229 -0.070597 1.843710 139 148 155
0.412698 -0.070547 1.842389 138 147 154
0.414302 -0.070520 1.841679 136 145 152
0.416065 -0.070520 1.841679 134 143 150
0.417610 -0.070483 1.840716 132 141 148
0.419360 -0.070481 1.840665 129 138 145
0.420907 -0.070445 1.839723 127 136 143
0.422505 -0.070417 1.839014 125 134 141
0.424179 -0.070403 1.838640 122 131 138
0.425717 -0.070366 1.837680 120 129 136
0.427274 -0.070333 1.836811 118 127 134
0.428987 -0.070326 1.836619 118 127 134
0.430580 -0.070299 1.835913 118 127 134
0.432245 -0.070284 1.835520 117 128 134
0.433797 -0.070251 1.834654 117 128 134
0.435541 -0.070249 1.834604 117 127 136
0.437058 -0.070210 1.833597 118 128 137
0.438813 -0.070210 1.833597 119 129 138
0.440568 -0.070210 1.833597 120 130 139
0.442093 -0.070174 1.832642 121 130 137
0.443835 -0.070172 1.832592 124 133 140
0.445597 -0.070173 1.832622 125 134 141
0.447361 -0.070174 1.832662 126 135 142
0.449120 -0.070175 1.832683 130 136 144
0.450877 -0.070175 1.832693 130 136 144
0.452855 -0.070210 1.833597 131 137 145
0.454610 -0.070210 1.833597 131 137 145
0.456365 -0.070210 1.833597 129 138 145
0.458121 -0.070210 1.833597 130 139 146
0.459763 -0.070193 1.833145 129 140 146
0.461631 -0.070210 1.833597 128 139 145
0.463387 -0.070210 1.833597 127 138 144
0.465142 -0.070210 1.833597 125 136 142
0.466946 -0.070217 1.833788 124 135 141
0.468909 -0.070249 1.834604 123 134 140
0.470666 -0.070249 1.834604 124 133 140
0.472430 -0.070250 1.834634 124 133 140
0.474178 -0.070249 1.834604 125 134 141
0.475934 -0.070249 1.834604 125 134 141
0.477691 -0.070249 1.834604 124 135 141
0.479447 -0.070249 1.834604 124 135 141
0.481132 -0.070238 1.834332 126 137 143
0.482713 -0.070213 1.833668 128 139 145
0.484450 -0.070210 1.833597 129 140 146
0.486085 -0.070193 1.833145 131 142 148
0.487960 -0.070210 1.833597 134 143 150
0.489643 -0.070200 1.833326 134 143 150
0.491301 -0.070186 1.832964 135 144 151
0.492955 -0.070172 1.832592 135 144 151
0.494710 -0.070172 1.832592 134 143 150
0.496464 -0.070172 1.832592 134 143 150
0.498218 -0.070172 1.832592 133 142 149
0.499973 -0.070172 1.832592 133 142 149
0.501727 -0.070172 1.832592 133 142 149
0.503495 -0.070174 1.832642 135 144 151
0.505513 -0.070210 1.833597 136 145 152
0.507276 -0.070211 1.833627 137 146 153
0.509302 -0.070249 1.834604 138 147 154
0.511087 -0.070252 1.834704 139 148 155
0.513237 -0.070306 1.836115 139 148 155
0.515137 -0.070326 1.836619 140 149 156
0.516875 -0.070323 1.836549 140 149 156
0.518453 -0.070299 1.835913 140 149 156
0.520125 -0.070287 1.835611 139 148 155
0.522011 -0.070305 1.836065 138 147 154
0.523924 -0.070325 1.836609 137 146 153
0.525974 -0.070364 1.837629 136 145 152
0.527734 -0.070364 1.837629 136 145 152
0.529228 -0.070329 1.836710 136 145 152
0.530960 -0.070326 1.836619 136 145 152
0.532455 -0.070291 1.835712 137 146 153
0.534262 -0.070298 1.835883 138 147 153
0.536214 -0.070323 1.836549 140 149 155
0.537963 -0.070322 1.836519 140 149 155
0.539736 -0.070324 1.836569 141 150 156
0.541509 -0.070326 1.836619 142 151 157
0.543544 -0.070362 1.837558 142 151 157
0.545316 -0.070363 1.837599 143 152 158
0.547355 -0.070399 1.838539 143 152 158
0.549145 -0.070403 1.838640 143 152 158
0.550847 -0.070396 1.838448 143 152 158
0.552340 -0.070362 1.837558 143 152 158
0.554120 -0.070364 1.837629 143 152 158
0.555910 -0.070368 1.837730 143 152 158
