ply
format ascii 1.0
element vertex 1234
property float x
property float y
property float z
property uchar red
property uchar green
property uchar blue
end_header
0.261037 0.308498 1.617246 118 148 160
0.061069 0.141013 0.983709 80 121 132
0.177769 0.096760 0.996803 76 118 126
-0.103233 0.159338 0.994126 121 144 163
0.185755 0.118519 1.009632 55 105 115
0.663070 0.804316 3.476027 70 120 128
-0.021408 0.198310 0.998256 74 115 128
-0.251374 0.167182 1.065575 70 104 111
0.081543 0.077135 0.976256 121 142 157
0.031357 0.042556 0.992177 128 146 162
3.228990 0.814985 9.139716 103 165 172
-0.087656 0.079889 0.983026 134 144 157
0.171408 0.012914 1.040133 103 131 142
0.285714 0.087464 1.033181 86 117 131
0.256194 0.331888 1.719514 94 128 139
0.690488 0.576463 2.806145 70 120 128
-0.127305 0.237954 1.054078 22 52 60
0.110000 0.093333 0.984392 83 122 131
-0.085855 0.033197 1.014183 113 132 142
0.124429 0.004566 1.011361 111 122 135
-0.040342 0.186022 0.992810 71 112 126
-0.050804 0.130324 0.978480 132 151 167
0.595129 0.762986 3.379846 73 124 129
0.072934 0.005698 1.009632 172 172 181
0.082119 0.177924 1.010460 62 110 119
0.048831 0.145384 0.983231 83 121 133
0.111989 0.077616 0.982345 100 132 143
-0.059751 0.113970 0.980307 123 142 156
0.243081 0.083310 1.011073 99 135 143
-0.173017 0.197402 1.028757 85 110 120
1.259405 0.459406 3.508722 89 135 144
2.677113 0.555120 7.932425 110 160 170
-0.027648 -0.006912 1.020602 126 131 144
0.137079 0.120225 0.995452 55 101 112
0.027424 0.006856 1.012365 169 171 179
0.077493 0.006838 1.009632 170 170 179
0.312598 0.107793 1.061100 90 124 133
-0.033520 0.179888 0.989891 73 112 126
0.867234 0.902631 3.920041 85 138 142
0.332205 0.149988 1.098201 51 90 99
0.108858 0.011339 1.004616 164 169 176
0.001124 0.187772 0.996152 71 112 126
0.121027 0.078834 0.983709 98 130 141
0.354174 0.810079 3.338099 88 128 137
3.265518 0.757518 9.069260 104 166 172
-0.198207 0.152112 1.020940 126 145 153
-0.017631 0.095868 0.976256 103 122 134
-0.055249 0.131492 0.978953 132 153 168
-0.017117 0.215676 1.011001 89 129 138
-0.002213 0.154920 0.980368 92 124 144
0.098983 0.162696 1.007981 60 108 119
0.023140 0.132231 0.976256 104 133 150
-0.198715 0.115346 1.011794 183 196 192
0.549325 0.355780 2.521634 102 137 152
0.135504 0.129858 1.000419 63 113 123
-0.098124 0.007009 1.034916 137 151 159
0.305291 0.057693 1.064855 94 122 133
3.094017 0.667915 8.702070 103 165 171
0.001108 0.157341 0.981665 91 125 144
0.242181 0.060832 1.016875 112 137 149
0.144444 0.067778 0.984392 85 117 126
0.205223 0.162212 1.088728 89 121 128
0.192826 0.117521 1.010857 53 101 112
-0.166337 0.090523 1.002492 133 153 163
-0.193692 0.255263 1.136438 42 92 100
0.132097 0.172654 1.026596 71 117 126
-0.018683 0.127481 0.973641 125 143 162
-0.011027 0.073880 0.976929 119 134 147
-0.172595 0.206414 1.033181 120 139 151
0.069191 -0.017894 1.056899 78 103 117
0.176404 0.093258 0.995452 85 124 133
-0.167215 0.162634 1.014691 102 126 138
-0.086804 0.236950 1.039240 87 129 137
-0.110502 0.047846 1.009273 103 124 137
0.207948 0.115400 1.012264 50 100 110
0.131752 0.043545 0.989200 125 141 152
0.630156 0.532268 2.710138 60 108 120
0.496442 0.720401 3.306950 82 117 130
0.134351 0.058848 0.983709 88 116 125
-0.036439 0.069565 0.978277 125 138 152
-0.260504 0.126050 1.063568 62 91 98
0.093463 0.117942 0.985761 65 106 117
-0.212017 0.175704 1.037772 90 122 131
0.079489 0.172605 1.006050 59 107 116
0.055586 0.145635 0.984932 80 119 131
-0.208892 0.156669 1.028160 116 137 148
-0.188639 0.093748 1.012879 90 114 126
0.134819 0.088022 0.987134 85 121 131
-0.093308 0.058458 0.995977 148 161 175
0.064747 0.180611 1.006371 62 108 117
0.428143 0.778777 3.269952 71 115 127
0.692838 0.166794 2.273414 121 168 174
-0.063170 0.240983 1.036406 85 127 135
0.241398 0.100203 1.008806 65 109 121
0.266309 0.278573 1.552218 106 134 145
0.473239 0.732394 3.327521 84 122 136
0.427517 0.735029 3.322452 87 128 141
-0.117887 0.188848 1.014002 78 116 130
0.181767 0.053857 0.994056 123 142 154
0.154374 0.209234 1.130312 70 110 119
-0.154149 0.115893 0.996852 138 154 163
0.100761 0.070865 0.980985 102 126 140
0.668539 0.573934 2.793839 66 114 123
-0.198616 0.117572 1.011289 195 203 201
0.281306 0.132938 1.051576 32 64 75
-0.019540 -0.004598 1.018336 118 128 141
-0.117073 0.092544 0.987822 162 173 179
-0.208895 0.120517 1.016875 166 182 181
0.249621 0.053407 1.028615 100 123 140
0.272897 0.255841 1.511084 109 137 148
0.100137 0.110151 0.985740 63 102 116
-0.254318 0.109515 1.078055 75 110 125
0.249844 0.072203 1.015368 94 126 137
-0.003306 0.071625 0.976256 118 133 148
0.035556 0.000000 1.016146 144 154 163
0.081723 0.067367 0.978419 110 131 146
0.342914 0.400066 2.025367 91 124 138
0.187246 0.063910 0.993360 100 130 138
-0.086667 0.107778 0.984392 140 156 163
0.049724 0.059669 0.978953 122 140 154
0.695834 0.819096 3.522718 72 122 130
0.031907 0.069316 0.974773 112 129 148
2.830129 0.595817 8.247893 101 157 166
0.658767 0.807774 3.474025 74 124 134
0.593569 0.509204 2.669411 62 110 121
-0.081143 0.034286 1.012517 127 142 157
0.083894 0.012471 1.004410 174 174 183
0.048179 0.218566 1.041072 167 181 189
-0.161364 0.144318 1.006764 133 149 160
0.983713 0.465969 3.057975 71 119 128
0.122191 0.187987 1.040919 47 93 104
1.204618 0.264751 3.909284 118 169 172
0.126667 0.084444 0.984392 88 124 134
0.229060 0.062678 1.009632 118 144 152
-0.187917 0.084159 1.021381 79 107 116
0.060606 0.113499 0.976256 65 103 117
0.063038 0.029268 0.997294 141 148 164
-0.271620 0.145598 1.083974 52 86 93
0.208326 0.033751 1.031099 92 115 132
0.477870 0.175509 1.539528 99 140 151
0.818294 0.503565 2.788343 73 119 131
0.009275 0.222601 1.027154 60 104 114
0.034433 -0.001148 1.016875 138 148 159
0.006591 0.117546 0.973273 113 133 151
-0.046409 0.135912 0.978953 130 149 165
0.596204 0.826993 3.407796 80 132 141
0.403545 0.208281 1.647565 91 129 143
0.044040 0.210930 1.026782 104 134 142
-0.026538 0.154803 0.979630 97 124 142
-0.103685 0.273122 1.120245 42 98 104
0.380679 0.863123 3.339240 83 128 133
0.793872 0.567051 2.870746 64 109 124
0.099790 0.030273 0.993360 142 147 160
0.109165 0.136175 0.997063 76 120 130
0.069374 0.107915 0.975584 65 100 115
-0.132028 0.107413 0.991276 142 158 169
0.041261 0.201719 1.015418 57 105 116
-0.051898 0.130297 0.978277 132 151 167
-0.065284 0.115076 0.980307 122 140 154
-0.197432 0.117546 1.011073 197 205 203
-0.181572 0.213201 1.037833 127 148 161
0.194626 0.172454 1.091326 110 136 144
-0.142846 0.259607 1.100477 55 102 106
-0.215083 0.106385 1.024482 107 133 137
-0.255178 0.160088 1.066393 72 107 112
0.100258 0.113625 0.986928 62 103 116
0.315133 0.055970 1.077965 101 131 139
0.474172 0.522732 2.530685 56 97 110
-0.055250 0.196194 0.998960 71 115 128
-0.047571 0.074123 0.980138 128 143 156
0.086456 0.032561 0.994754 142 153 166
0.010112 0.035955 0.995452 107 122 139
0.282969 0.082678 1.031677 100 127 143
-0.022069 0.082759 0.977603 110 128 142
0.109629 -0.004665 1.033256 124 137 153
0.291505 0.091315 1.037187 82 113 127
0.271435 0.306282 1.624856 113 143 153
2.450452 0.400401 7.094718 111 159 171
0.320271 0.048041 1.091327 90 122 131
-0.026380 0.001147 1.016146 124 135 148
-0.014286 0.117582 0.973574 126 145 161
-0.039914 0.018247 1.010352 133 147 159
0.058390 -0.011678 1.034613 105 120 137
1.036926 0.416837 3.052049 107 142 155
-0.134927 0.224096 1.039469 42 67 77
0.316881 0.031189 1.105282 93 117 131
0.017582 0.116484 0.973574 107 131 143
-0.068651 0.139516 0.980985 136 155 171
0.085437 0.029228 0.995963 150 160 171
-0.174134 0.110813 1.001784 145 160 165
0.212825 0.148854 1.089900 107 152 157
-0.216962 0.068303 1.186530 81 127 136
0.615646 0.503985 2.673691 66 114 125
-0.070388 0.259709 1.075185 43 91 100
0.182367 0.170290 1.069991 94 126 137
-0.263431 0.233711 1.196860 55 106 109
-0.129854 0.085077 0.991761 146 162 173
-0.018707 0.141953 0.974913 112 135 154
0.387237 0.055112 1.284920 100 136 146
-0.164677 0.077764 1.013168 116 135 147
0.077822 0.184254 1.013915 63 111 120
0.075556 0.133333 0.984392 79 119 128
-0.124000 0.148801 0.998713 128 148 166
0.010162 0.025970 1.000370 116 125 144
0.629914 0.780629 3.423764 71 119 128
0.171021 0.168646 1.052200 89 124 137
0.026465 0.133425 0.976929 104 133 150
-0.136146 0.130520 0.996852 147 166 172
0.104735 0.110306 0.987134 63 104 115
0.184552 0.126092 1.015557 60 110 120
-0.114195 0.021916 1.021933 101 121 129
0.201143 0.116571 1.012517 52 100 111
0.063868 0.113421 0.975584 65 103 117
-0.157931 0.059945 1.021308 73 101 114
0.075362 -0.006957 1.027191 115 125 138
0.532115 0.473641 2.590268 73 117 129
0.209873 0.097038 0.999664 71 115 125
-0.014701 0.203548 1.001855 71 113 121
0.160703 0.056916 0.988717 105 129 139
0.310210 0.077852 1.061124 101 131 139
-0.203494 0.180104 1.036126 82 116 127
0.037363 0.085714 0.973574 88 107 123
-0.098355 0.067060 0.990202 162 173 186
-0.093418 0.075624 0.985281 155 165 178
0.193197 0.067394 0.995138 100 128 137
0.600052 0.344527 2.543625 102 137 150
0.089864 0.144906 0.995194 74 115 126
0.514820 0.613193 2.905135 55 100 107
0.604937 0.816857 3.413664 83 133 143
0.023039 -0.006912 1.020587 99 108 123
-0.116637 0.264295 1.099308 48 105 108
1.161239 0.479881 3.245433 80 124 136
-0.156434 0.062114 1.019068 83 111 124
0.074785 0.145104 0.988890 76 115 127
-0.167090 0.197259 1.028011 80 105 113
0.633640 0.386078 2.611046 95 131 141
-0.069806 0.131856 0.981665 132 151 163
-0.126169 0.097139 0.989200 149 163 171
0.562082 0.490706 2.634803 73 117 130
0.073951 0.042578 0.992685 127 142 155
-0.119968 0.297193 1.207792 37 99 100
0.755942 0.482451 2.722474 81 129 140
-0.082697 0.163159 0.990078 114 138 155
-0.046646 0.212749 1.007945 79 118 132
-0.144928 0.201739 1.027191 50 85 98
1.505438 0.697052 4.288575 78 134 140
0.115235 0.075346 0.981665 91 123 134
0.266282 0.077233 1.021271 111 143 152
0.554964 0.853497 3.390841 67 119 126
-0.227255 0.141014 1.032496 109 138 145
-0.083333 0.112222 0.984392 124 143 151
0.563838 0.469373 2.615358 84 123 135
0.362685 0.771670 3.418314 67 117 128
-0.126569 0.253138 1.078211 60 109 113
0.631381 0.628041 2.959651 62 110 119
-0.037517 0.076138 0.977603 121 139 151
-0.091908 0.031019 1.017824 106 124 136
0.618853 0.372485 2.598458 106 142 152
0.170994 0.079350 0.990147 90 126 134
0.515668 0.113524 1.704691 109 151 157
0.432443 0.182656 1.383119 94 127 141
1.153720 0.586772 3.512513 82 129 135
0.086607 0.056627 0.983709 92 111 127
0.188239 0.043091 1.004645 120 142 151
-0.081016 0.052885 0.996887 121 134 150
-0.050829 0.128177 0.978953 132 153 168
0.080335 0.140586 0.988510 77 119 127
-0.174212 0.097287 1.002230 134 154 157
0.072036 0.186379 1.013024 61 111 121
-0.035806 0.044758 0.991338 123 136 154
0.176157 0.088640 0.994056 92 131 140
0.238009 0.117263 1.028608 51 99 110
0.182695 0.038582 1.005336 124 146 155
0.649376 0.582855 2.806423 66 116 124
0.903577 0.580625 3.043825 62 112 123
0.055866 0.155307 0.989891 75 116 127
0.969252 1.008414 4.336926 94 147 151
0.188006 0.131489 1.021867 55 107 116
-0.051111 0.163333 0.984392 95 122 140
-0.123338 0.160679 1.002492 109 136 152
0.241567 0.190493 1.222954 136 165 170
0.539767 0.449319 2.584907 94 130 140
-0.226184 0.095921 1.049155 76 107 121
0.006602 0.092435 0.974913 102 121 137
0.057627 0.020339 1.001076 141 145 158
0.133530 0.135794 1.002556 76 120 132
-0.145807 0.031748 1.041761 95 120 128
0.012121 0.137741 0.976256 110 134 154
-0.035335 0.096066 0.978277 103 122 136
0.048285 0.082305 0.972239 99 118 132
0.033012 0.121045 0.974913 95 122 138
-0.064719 0.054676 0.988579 149 163 175
0.565516 0.312522 2.197458 98 134 144
0.014305 0.075928 0.974913 110 128 142
-0.076620 0.184789 0.998256 82 117 132
0.961716 0.458769 3.010724 72 120 129
0.096249 0.157396 1.003202 61 109 120
0.063005 0.031503 0.996782 135 144 161
0.153984 0.151686 1.018080 90 131 144
0.027435 0.103155 0.972239 90 115 129
0.086405 0.147000 0.994161 74 115 126
-0.119386 0.091492 0.988510 160 170 179
0.079427 0.011347 1.005265 177 177 186
0.502968 0.901474 3.427738 54 108 118
-0.287081 0.156938 1.130402 75 114 119
-0.135603 0.169788 1.009560 96 125 142
0.373493 0.127264 1.225545 104 146 154
0.052784 0.095670 0.974243 86 113 129
2.729272 0.751263 8.425105 109 170 174
-0.076661 0.127769 0.984323 126 141 154
-0.121405 0.023125 1.024371 101 123 130
0.112849 0.116201 0.989891 59 104 111
0.078823 0.027025 0.997624 143 151 165
-0.071086 0.045134 0.999664 128 141 157
-0.295952 0.132714 1.175783 83 121 133
0.803922 0.617358 3.005219 83 127 137
0.020542 0.007989 1.011073 167 171 182
0.446299 0.654816 3.240981 115 150 163
0.029504 0.192908 1.005336 61 107 118
-0.058319 0.218409 1.013089 84 126 134
0.698240 0.577635 2.811850 71 121 129
0.379870 0.010267 1.299408 75 108 124
3.179868 1.001452 9.146791 99 164 170
-0.041084 0.219116 1.011073 93 132 139
-0.147642 0.126228 0.998502 152 166 176
-0.054219 0.087414 0.980307 114 132 144
0.959526 0.436148 2.972357 85 129 141
0.026630 0.153121 0.983026 90 122 142
-0.006952 -0.012745 1.026522 126 136 147
1.915482 0.235458 5.637961 87 126 138
-0.096596 0.085493 0.983674 148 159 172
0.822533 0.488478 2.792051 81 127 138
-0.096559 0.167295 0.994733 114 143 160
0.189488 0.069516 0.993360 95 127 134
-0.097203 0.012729 1.025208 110 126 135
0.075661 0.136857 0.985761 78 118 127
0.005648 0.194282 1.000723 65 106 119
-0.028728 0.071820 0.978906 122 137 150
-0.120140 0.139228 0.994754 137 156 170
-0.028776 0.157161 0.980544 96 125 140
0.071186 0.168360 1.001069 59 105 114
0.561803 0.819929 3.363046 81 129 140
0.018250 0.009125 1.010547 165 169 180
0.064512 0.052277 0.985418 116 134 150
-0.032630 0.196906 0.996852 76 117 130
-0.055905 0.176660 0.990583 80 118 133
-0.001101 0.082603 0.975766 104 123 139
-0.125263 0.041371 1.018139 80 105 117
2.249498 0.278509 6.326820 92 140 149
0.541465 0.355336 2.498500 105 140 153
-0.215842 0.187535 1.044948 78 114 124
-0.054468 0.207660 1.005336 69 113 126
0.074474 0.218619 1.064207 124 144 150
0.751984 0.595728 2.884078 60 104 116
0.080453 0.167705 1.003912 59 105 114
0.021902 -0.008069 1.021271 94 104 119
0.190826 0.105011 1.000370 58 106 115
-0.117196 0.108266 0.988855 144 160 171
0.449696 0.846928 3.320078 71 119 130
0.108229 0.044630 0.988510 98 113 126
-0.025485 0.057618 0.981665 153 169 180
0.137778 0.056667 0.984392 96 121 129
-0.103333 0.090000 0.984392 157 171 181
-0.038621 0.144552 0.977603 116 136 156
-0.200874 0.138890 1.016941 141 160 166
0.077465 0.178854 1.009273 63 110 116
-0.159650 0.174581 1.017569 89 121 132
0.360945 0.800846 3.331040 70 111 122
-0.017660 0.149004 0.977852 103 127 147
-0.081476 0.212297 1.016678 62 108 120
0.303306 0.144431 1.066329 49 79 87
-0.074194 0.180988 0.995942 86 119 136
0.660096 0.756602 3.419965 73 121 130
-0.040230 0.000000 1.018336 115 126 139
0.786950 0.539442 2.811292 64 112 124
-0.210685 0.134700 1.019985 148 165 169
0.078291 0.099242 0.976929 70 108 123
0.161571 0.044881 0.994056 113 128 141
0.108780 0.012464 1.003891 169 174 181
0.320121 0.100644 1.074289 102 141 148
0.337775 0.158729 1.125010 37 76 85
-0.005709 0.011417 1.011527 145 153 167
0.075138 0.118232 0.978953 68 107 121
0.153661 0.028247 1.001006 139 150 163
0.272846 0.087866 1.024274 84 123 137
0.461466 0.714894 3.351120 89 127 141
0.224002 0.035936 1.061259 114 141 157
0.279826 0.089405 1.028682 92 125 141
0.290370 0.132741 1.050018 40 72 81
0.084184 0.220829 1.080908 82 114 123
0.163380 0.108169 0.998256 56 102 111
0.023093 0.118763 0.974243 106 131 145
0.129158 0.050104 0.986447 119 138 148
0.722802 0.570633 2.808633 71 117 128
-0.111129 0.149295 0.994495 130 151 166
-0.161916 0.206181 1.032015 93 117 127
0.177778 0.070440 0.990583 91 125 132
0.703469 0.553395 2.769954 66 112 124
-0.064400 0.155448 0.983709 116 139 158
0.422691 0.009792 1.445885 96 129 145
0.032178 0.055479 0.983026 125 138 154
-0.097982 0.120251 0.986447 132 148 159
-0.119125 0.247875 1.066048 61 110 116
-0.122716 0.274833 1.132506 39 96 99
0.247169 0.137031 1.134609 68 120 130
0.035147 0.084572 0.973073 89 108 124
0.029670 0.090110 0.973574 89 113 127
0.739155 0.411643 2.662017 88 130 138
0.008791 0.102198 0.973574 99 120 135
0.189488 0.076244 0.993360 90 126 134
-0.014444 0.053333 0.984392 134 152 166
0.348609 0.810894 3.357072 89 129 138
0.207647 0.099309 0.999812 68 114 123
0.300898 0.141458 1.062078 53 81 90
-0.073692 0.165248 0.989200 107 131 150
-0.125843 0.135955 0.995452 140 159 171
-0.266347 0.203601 1.134473 100 131 137
-0.230694 0.136319 1.032240 113 141 150
0.025413 0.142532 0.978885 98 127 144
0.299850 0.069925 1.050010 89 121 130
-0.091365 0.234269 1.037757 79 124 131
-0.127324 0.146479 0.998256 128 148 166
0.668229 0.647773 3.020507 50 104 111
0.071429 0.082418 0.973574 105 128 145
-0.070683 -0.005890 1.043701 166 175 181
-0.045649 0.015977 1.011073 130 143 157
0.046154 0.106593 0.973574 85 117 128
0.453975 0.731613 3.323972 85 124 138
1.089894 1.393635 5.276472 81 135 144
0.125941 0.181915 1.033128 53 101 110
2.227659 0.383820 6.667566 113 158 165
0.191048 0.047479 1.001536 116 137 150
0.046345 0.064000 0.977603 110 128 142
0.361642 0.495171 2.464596 69 108 120
-0.042517 0.179021 0.991276 74 113 128
0.093010 0.066436 0.980985 109 133 145
0.204112 0.145280 1.063728 96 141 146
2.277400 1.535244 6.446224 47 107 117
-0.144382 0.058440 1.015200 94 119 133
0.615949 0.372502 2.598577 105 141 151
0.024176 0.084615 0.973574 100 121 136
0.331179 0.271305 1.657679 124 154 166
-0.038594 0.120193 0.976929 133 152 166
0.307519 0.435027 2.215021 72 119 125
-0.137500 0.065909 1.006764 137 155 169
0.608124 0.439856 2.615382 102 138 148
-0.214827 0.108569 1.023261 107 133 137
-0.035457 0.160665 0.981665 92 123 139
0.996443 0.944496 4.183892 62 123 129
-0.003385 0.196333 0.999664 69 110 123
-0.067765 0.013783 1.017569 105 119 131
0.059401 0.096802 0.974572 80 113 129
0.100000 0.178161 1.018336 65 115 123
-0.076304 0.240651 1.040026 96 136 145
-0.037312 0.033920 1.001713 132 145 163
0.582900 0.478810 2.634803 80 120 129
0.062637 0.103297 0.973574 69 104 119
0.700752 0.439098 2.664519 102 142 151
0.118483 0.015798 0.999714 162 167 175
0.178488 0.019576 1.020205 100 125 137
0.048451 0.172394 0.998256 65 106 119
-0.147591 0.250051 1.080652 68 103 106
0.621269 0.783340 3.418728 73 121 130
0.199191 0.139080 1.044225 82 129 135
0.730282 0.814545 3.554919 61 113 122
0.323439 0.162359 1.132615 34 66 73
0.361164 0.512620 2.580439 98 138 147
0.049098 -0.014028 1.035672 109 122 136
0.040882 0.190783 1.006100 61 107 116
-0.178568 0.083560 1.014118 97 122 132
0.314011 0.059407 1.074126 101 131 139
-0.066432 0.190289 0.997554 73 111 126
0.049417 0.090048 0.972906 94 118 130
-0.069758 0.084152 0.980985 133 149 160
0.872809 0.649197 3.195320 94 133 138
0.488578 0.753380 3.304252 77 118 129
-0.139379 0.059407 1.012156 108 129 142
-0.171930 0.214035 1.036202 118 136 148
2.407045 0.434717 7.132199 111 157 166
0.294880 0.081063 1.040835 85 117 124
-0.019400 0.012553 1.011051 153 161 171
-0.147174 0.182818 1.018666 77 112 127
0.064880 0.102268 0.974243 71 104 118
0.364106 0.799531 3.325569 75 116 127
0.318846 0.038460 1.099154 88 116 129
0.053344 0.053344 0.984597 123 138 155
-0.027225 0.259879 1.096382 40 91 96
-0.100348 0.132683 0.987822 123 141 155
-0.087906 0.137979 0.985829 134 153 167
-0.224570 0.197096 1.058288 73 109 117
0.021259 0.042517 0.991276 123 140 159
0.039712 0.129063 0.977299 96 129 143
1.431699 0.152308 4.497935 107 143 153
0.015675 0.173548 0.991969 72 113 127
0.110180 0.200000 1.061021 47 93 102
-0.136570 0.098510 0.991761 144 160 169
0.337550 0.015823 1.168177 70 97 116
-0.102507 0.118106 0.987134 142 158 169
-0.156042 0.133428 1.001784 155 169 179
0.354244 0.872277 3.374655 83 125 133
0.452979 0.466301 2.360691 45 84 98
0.421068 0.347736 2.095767 104 137 153
0.274591 0.045171 1.053138 77 100 117
0.503878 0.831022 3.331431 75 127 134
0.091396 0.153456 0.999664 66 112 123
0.821897 0.813595 3.677583 65 119 126
0.049104 0.005710 1.011722 176 178 187
-0.191826 0.244142 1.103561 49 99 107
-0.057498 0.136006 0.979630 133 154 169
0.105382 0.151841 1.003912 66 112 121
-0.171630 0.101623 1.000370 143 163 166
1.857649 1.881879 7.155603 71 140 145
-0.103075 0.229575 1.037719 67 112 119
-0.050259 0.239608 1.035520 82 120 132
-0.145900 0.094274 0.994314 149 165 172
0.492266 0.395427 2.383195 100 133 147
-0.045788 0.170866 0.989407 86 121 137
0.018707 0.127648 0.974913 109 133 152
0.021498 0.191217 1.002421 61 105 118
0.499767 0.768298 3.304252 72 116 126
0.985040 1.254687 4.875409 78 132 139
-0.107413 0.144336 0.991276 132 151 165
-0.105085 0.055367 1.001076 144 159 172
-0.066003 0.034139 1.008196 133 148 161
-0.004417 0.066253 0.978277 118 131 147
0.041125 0.235863 1.071609 89 119 131
0.252141 0.110527 1.020022 55 102 117
-0.226580 0.130138 1.029429 145 170 176
0.115722 0.128081 0.995382 75 116 127
-0.145876 0.038205 1.025705 75 104 111
-0.047580 0.094053 0.980307 112 131 143
-0.081427 -0.001180 1.045518 149 164 169
0.188610 0.158767 1.057593 90 124 133
0.958236 0.555499 3.075910 88 127 136
-0.143259 0.057304 1.015367 94 119 133
-0.145662 0.195371 1.024200 60 98 110
-0.013370 0.171588 0.987134 78 116 130
0.345891 0.147512 1.126629 72 110 122
-0.146333 0.170340 1.012843 90 119 136
0.129795 0.030211 0.991310 138 148 159
-0.198820 0.185955 1.036149 70 106 116
0.416990 0.450247 2.266461 76 111 124
0.067203 -0.006952 1.026522 118 128 143
-0.026518 0.069608 0.978885 125 138 152
0.687288 0.387701 2.602155 92 132 141
0.200408 0.077686 0.997484 92 128 136
0.038746 0.009117 1.009632 176 178 187
-0.241424 0.253700 1.208420 40 95 99
0.095159 0.080775 0.980307 114 142 155
0.094029 0.081860 0.980056 115 140 154
0.613796 0.873479 3.485858 60 114 124
-0.035408 0.156017 0.980307 100 124 141
0.475446 0.253131 1.950104 88 126 140
-0.050597 0.191145 0.996152 72 113 127
-0.005502 0.133150 0.974913 115 138 157
1.540072 0.555264 4.640921 77 125 137
0.069903 0.134258 0.983026 79 119 128
0.044190 0.061866 0.978750 120 135 150
-0.103662 0.170141 0.998256 113 144 161
0.130312 0.050120 0.986756 119 138 148
0.101053 0.026947 0.994754 148 153 166
1.422671 0.141258 4.469570 111 147 157
0.044924 0.205040 1.020536 64 108 120
0.093855 0.128492 0.989891 71 116 123
0.142408 0.189080 1.060228 56 102 111
-0.099601 0.012740 1.026069 114 130 139
0.214993 0.072419 1.002492 94 128 137
-0.021622 0.213940 1.008196 84 126 134
-0.152051 0.144108 1.005301 137 152 165
0.114446 0.025806 0.994056 143 151 163
-0.162811 0.216691 1.037719 97 118 129
-0.039779 0.082873 0.978953 116 131 144
0.002225 0.166898 0.985761 81 119 134
-0.219032 0.190617 1.048930 77 116 123
1.185331 0.553416 3.477307 54 103 117
-0.056432 0.119502 0.980307 124 143 157
-0.142697 0.088764 0.995452 136 155 165
-0.195581 0.092038 1.019266 74 98 110
0.091203 0.024771 0.997554 154 159 167
0.004785 0.242841 1.059831 44 90 99
-0.223918 0.149279 1.033233 110 138 147
0.310890 0.144600 1.067573 64 94 104
0.656223 0.510396 2.691586 66 114 126
1.147518 0.074568 3.670203 129 161 172
-0.008988 0.189881 0.995417 74 115 126
-0.116618 0.218076 1.033181 53 91 106
0.279430 0.095076 1.027228 86 119 135
-0.114775 0.226037 1.037605 40 73 87
0.316024 0.023922 1.115467 83 107 126
-0.046409 0.103867 0.978953 112 131 143
1.146895 0.439159 3.215489 103 142 154
-0.074203 0.004638 1.027191 113 124 135
0.144807 0.030308 0.994510 135 145 158
-0.013547 0.200945 1.000158 71 112 123
0.704620 0.436624 2.667778 101 141 150
-0.148489 0.184173 1.019801 77 111 122
3.230120 0.872444 9.201715 100 165 170
0.080956 0.154041 0.996152 69 113 123
-0.122513 0.012011 1.064127 144 158 166
0.219830 0.071388 1.003912 99 131 140
0.064044 0.122567 0.978277 75 113 125
-0.039957 0.013700 1.011433 137 151 163
1.800966 1.739130 6.847942 72 133 140
0.334365 0.060794 1.122090 107 141 150
-0.095489 0.102151 0.983709 150 166 175
0.141393 0.019229 1.002138 116 127 140
1.326053 0.162765 4.241227 115 154 163
0.172791 0.089762 0.994056 92 128 138
0.639234 0.746412 3.391206 80 126 135
1.774966 0.190600 5.276963 97 136 148
-0.056537 0.201272 1.001784 68 112 124
-0.060855 0.115071 0.980260 123 142 156
0.190743 0.059467 0.994056 119 144 154
-0.096833 0.057424 0.997554 145 158 172
0.908095 1.171236 4.571186 71 125 132
0.980700 1.261687 4.881198 71 125 132
-0.114620 0.224561 1.036202 41 74 88
-0.169681 0.198736 1.029654 82 108 116
0.127592 0.076555 0.982958 86 118 125
0.739164 0.434981 2.694913 96 137 148
0.000000 0.236139 1.040835 53 94 105
-0.005682 0.207955 1.006764 73 114 125
0.047712 0.055479 0.983026 129 144 157
0.176521 0.110891 1.002492 55 103 112
-0.416457 0.274526 1.654535 107 143 149
-0.210140 0.237658 1.108176 53 97 107
-0.185882 0.216471 1.042297 108 136 145
-0.150511 0.082611 1.002599 113 134 147
1.009853 0.881908 4.048335 59 113 122
2.142172 0.286088 6.181962 117 160 162
0.400928 0.820418 3.288919 99 139 148
0.190849 0.079708 0.994607 91 127 135
0.044247 -0.012808 1.031609 101 114 128
0.019252 0.020384 1.003308 143 151 165
0.356470 0.773616 3.359738 76 124 136
0.032815 0.021499 1.002492 144 149 164
0.480428 0.402594 2.377859 98 131 145
-0.095590 0.045519 1.008196 99 118 134
0.135951 0.015861 1.003720 117 127 142
0.488263 0.287950 2.218347 98 137 149
-0.032230 -0.003453 1.019801 119 129 142
0.009932 0.064009 0.977744 113 128 143
0.083146 0.030337 0.995452 147 157 170
1.544412 0.235495 4.852042 109 149 158
-0.041808 0.203390 1.001076 74 115 128
-0.042443 0.174241 0.989546 80 118 133
-0.108770 0.053252 1.003806 133 151 163
-0.235720 0.190019 1.065495 83 117 126
-0.211017 0.093267 1.032880 82 107 119
0.432454 0.187344 1.383153 80 114 125
0.263557 0.055977 1.033181 106 130 142
0.347832 0.053816 1.162878 97 131 140
0.061581 0.071478 0.974243 114 133 147
-0.136558 0.166145 1.008196 97 126 143
0.070145 -0.010522 1.035748 111 124 138
0.089984 0.009112 1.009129 175 175 184
0.250935 0.063309 1.019801 99 126 142
-0.151899 0.118143 0.996852 139 155 164
-0.056354 0.103867 0.978953 113 132 144
0.173361 0.126599 1.010460 59 109 119
0.032605 0.218918 1.031654 95 127 138
-0.038609 0.026118 1.006050 131 141 158
-0.082076 0.012716 1.024156 101 117 128
0.048349 0.032607 0.996152 128 138 157
0.652505 0.226958 2.094522 113 154 167
0.920149 0.516750 2.953653 85 129 141
0.076015 0.172452 1.005158 57 105 116
0.079492 0.042545 0.991920 125 140 153
-0.113245 0.069516 0.993360 148 162 174
1.975305 0.702625 5.872571 65 113 124
0.424880 0.715789 3.391206 89 128 142
-0.058570 0.106088 0.979054 114 133 147
2.095063 0.454800 6.605432 114 164 172
0.009895 0.100054 0.974103 95 114 130
0.151421 0.074597 0.986412 79 118 125
-0.138105 0.086456 0.994754 136 154 166
0.260787 0.046655 1.059839 104 124 144
0.021207 0.046878 0.988855 125 143 157
-0.025806 0.190743 0.994056 77 118 131
-0.077670 0.098752 0.983026 134 153 163
0.190532 0.033286 1.016883 106 127 140
-0.121434 0.143921 0.996152 133 152 168
1.118218 1.036147 4.544439 53 107 117
-0.158353 0.173271 1.016620 88 118 130
0.196056 0.093521 0.998256 81 120 129
-0.079711 0.039856 1.008864 129 142 156
-0.190043 0.116074 1.008196 196 203 201
-0.164443 0.209928 1.033256 112 131 143
0.228145 0.082859 1.005600 93 132 139
0.308037 0.079994 1.057775 103 133 141
-0.061488 0.249501 1.047612 56 101 108
0.056160 0.001146 1.015418 154 158 171
0.477824 0.256447 1.941879 95 133 147
0.022898 0.002290 1.014328 160 166 174
-0.096253 0.009277 1.027415 126 140 148
-0.194952 0.249387 1.121548 45 95 103
0.213181 0.050160 1.009992 116 141 149
-0.054468 0.031773 1.005336 120 133 151
-0.186341 0.152983 1.019068 123 142 150
0.107487 0.039188 0.991962 124 137 151
0.270175 0.119298 1.036202 36 73 91
-0.094906 0.148500 0.989200 134 155 170
0.216014 0.049146 1.012582 109 134 144
-0.021274 0.185864 0.991969 80 119 133
1.768754 0.132356 5.330040 123 162 171
1.579364 0.198108 4.875405 99 138 152
0.001119 0.042517 0.991276 115 132 151
1.294636 1.142657 4.986895 53 105 114
0.280447 0.107058 1.030964 59 94 107
0.172408 0.193802 1.114932 132 164 173
0.000000 0.066253 0.978277 115 130 143
0.248770 0.091292 1.011001 83 122 136
0.219721 0.082679 1.003415 93 132 139
0.272453 0.128993 1.068056 51 90 102
0.451329 0.776879 3.277512 71 118 124
0.091716 0.190397 1.028555 68 114 123
0.150007 0.159238 1.022302 90 129 143
0.016484 0.115385 0.973574 106 130 144
0.111654 0.115003 0.989200 60 105 112
-0.139326 0.122472 0.995452 150 164 172
-0.006686 0.047918 0.987278 119 136 155
1.953879 1.953879 7.429374 60 129 134
-0.073950 0.053782 0.992664 133 146 160
1.028241 0.494552 3.152155 64 113 127
3.200000 0.993464 9.264862 104 163 171
3.123906 1.031290 8.870617 98 163 168
0.070156 0.015842 1.002492 168 168 177
0.657328 0.701150 3.235340 56 108 115
0.104494 0.024719 0.995452 153 157 168
-0.083276 0.096600 0.983709 134 153 163
0.214164 0.105382 1.003912 62 108 120
0.299554 0.134324 1.053138 62 94 101
0.588609 0.298832 2.005692 80 121 132
0.146165 0.050209 0.988510 115 134 142
0.199247 0.065290 0.997308 109 137 146
-0.179730 0.071892 1.027303 95 124 131
-0.001105 0.150276 0.978953 101 130 148
0.267172 0.117836 1.033633 47 85 103
0.731232 0.651900 3.055833 58 108 116
0.190675 0.076270 0.993701 90 126 134
0.182243 0.109798 1.002847 57 103 112
3.167408 1.018459 9.023066 98 163 168
-0.068057 0.056900 0.988448 152 166 178
0.304843 0.049597 1.071730 88 113 123
3.283117 0.883117 9.204701 100 167 171
-0.017811 -0.022560 1.051958 160 169 176
0.012598 0.002291 1.014691 143 151 165
0.080865 0.176536 1.009050 61 109 118
0.128000 0.160000 1.012517 81 125 137
0.093347 0.114461 0.984535 61 100 114
0.665169 0.461423 2.654539 99 139 146
0.567060 0.435525 2.589629 97 136 145
-0.046669 0.269925 1.117481 37 93 99
0.052867 0.168723 0.996537 66 107 118
0.989776 1.248217 4.871636 82 134 141
-0.325047 0.155395 1.263052 82 111 126
0.177653 0.095573 0.996152 81 120 129
-0.146306 0.220044 1.036960 64 89 101
0.315290 0.856344 3.448544 113 152 164
-0.019162 0.199507 0.998608 73 114 125
-0.120485 0.010844 1.067437 145 159 167
-0.081849 0.016139 1.021322 100 119 129
0.261577 0.104861 1.020903 45 92 107
1.533180 1.316034 5.829718 88 144 152
-0.053037 0.110493 0.978919 121 142 155
-0.114930 0.157746 0.998256 118 142 159
0.626415 0.724528 3.343217 77 123 132
-0.067380 0.022841 1.011794 123 136 152
0.438408 0.850586 3.319728 74 120 131
0.166910 0.230893 1.232289 86 122 128
-0.082521 0.029799 1.015418 116 132 143
0.479608 0.835568 3.319612 76 126 134
0.542118 0.768000 3.335351 74 119 126
-0.232454 0.097750 1.056120 70 103 117
0.027467 0.092291 0.973394 89 113 127
-0.449755 0.271438 1.755338 114 143 150
0.086908 0.128134 0.987134 74 115 126
0.128026 0.201184 1.080240 41 89 98
0.069081 0.050139 0.987134 123 141 155
-0.082621 0.158543 0.989166 118 141 158
-0.060358 0.210684 1.008950 70 114 126
0.343014 0.137965 1.121380 87 126 133
0.495980 0.704813 3.303867 89 127 141
2.170679 0.280088 6.203609 122 162 167
-0.070865 0.075294 0.980985 142 153 166
0.141592 0.117993 0.995585 52 98 110
0.188450 0.119923 1.011867 57 107 117
-0.182896 0.139458 1.012734 150 162 168
-0.097859 0.170973 0.996537 107 136 151
0.286969 0.070278 1.037719 74 106 115
0.001100 0.134250 0.974913 114 138 157
0.139867 0.125204 0.999319 55 103 112
-0.082138 0.011569 1.024941 104 120 131
0.279441 0.097398 1.027266 80 115 128
-0.052441 0.171827 0.988510 84 122 137
-0.133145 0.073343 0.999664 138 153 170
-0.059792 0.100761 0.980985 122 140 154
0.071463 0.086855 0.974043 97 121 138
0.079872 0.056576 0.982822 103 122 138
0.016582 0.145922 0.979393 99 130 147
0.391385 0.756677 3.302366 70 114 127
0.083862 0.073931 0.977603 121 140 154
0.183975 0.137692 1.025111 61 109 120
-0.063027 0.112785 0.979630 122 141 155
-0.072058 0.186901 0.997505 80 115 131
-0.065284 0.141632 0.980307 135 156 171
0.343722 0.029945 1.153490 84 117 131
0.170381 0.107193 0.999664 58 104 113
0.121533 0.047944 0.987822 113 128 141
-0.132288 0.174483 1.010352 87 120 136
2.377763 0.382001 6.906836 117 163 172
0.242218 0.093248 1.007480 79 120 131
-0.076253 -0.007149 1.055569 169 178 185
0.100840 0.033613 0.992664 135 145 156
0.577831 0.474118 2.625288 81 120 132
0.002254 0.191549 0.998256 67 108 122
-0.042468 0.176579 0.990133 79 117 132
0.782907 0.429831 2.720071 80 126 135
-0.076454 0.085319 0.981665 139 153 165
0.304587 0.273395 1.625603 111 139 150
0.168686 0.160486 1.037833 89 128 142
-0.336687 0.208926 1.331646 119 145 153
0.764926 0.460799 2.721637 92 138 147
-0.112489 0.267473 1.107328 48 103 107
0.137622 0.035804 0.991276 123 133 148
0.100904 0.210318 1.077065 52 106 113
-0.280416 0.152727 1.109087 67 103 109
-0.006851 0.214658 1.011578 78 120 128
-0.053039 0.113812 0.978953 123 144 157
0.032117 0.206466 1.016219 56 102 111
0.958239 0.820733 3.806968 59 109 119
-0.092329 0.174525 0.997554 98 129 143
-0.044269 0.069724 0.980510 126 139 153
0.106729 0.192347 1.039088 53 99 108
-0.037224 0.203039 0.999347 75 116 129
0.004393 0.103231 0.972953 102 121 135
0.504208 0.758179 3.308918 75 116 127
-0.094515 0.172152 0.996852 103 132 147
0.023653 0.230616 1.047767 87 123 133
-0.007778 0.166667 0.984392 83 118 133
2.456019 0.390730 7.064662 108 158 168
0.077272 -0.010537 1.037263 112 125 139
0.587156 0.405138 2.600961 95 130 143
0.162819 0.117591 1.001734 48 98 108
-0.121254 0.061194 1.003976 154 169 184
0.072103 0.001144 1.013966 151 156 169
-0.062983 0.078453 0.978953 132 145 159
-0.101655 0.141870 0.989684 134 153 167
-0.139931 0.214562 1.033105 52 80 93
-0.188706 0.138385 1.013241 156 167 173
0.762760 0.547542 2.804022 60 108 120
0.111911 0.058726 0.981665 93 117 129
-0.083799 0.159777 0.989891 118 141 158
0.133705 0.090251 0.987134 81 120 127
0.290184 0.037482 1.071204 78 101 118
1.183930 1.097826 4.767752 48 107 115
0.012096 0.082474 0.974243 104 123 139
-0.024209 0.105640 0.974913 115 134 148
0.105692 0.133802 0.996152 75 119 129
0.121434 0.127056 0.996152 75 116 127
0.027473 0.114286 0.973574 99 123 140
-0.056484 0.068667 0.981223 137 148 161
0.172575 0.026286 1.012539 100 118 130
1.061819 0.403001 3.104690 96 137 148
0.103050 0.152877 1.003273 65 111 120
-0.195751 0.198095 1.038479 92 126 133
-0.146279 0.147413 1.004624 128 146 160
-0.149740 0.217592 1.036429 73 97 109
0.600580 0.334836 2.354358 101 137 145
0.048318 0.085655 0.972906 94 115 128
0.648309 0.440136 2.634730 105 145 152
0.277766 0.070894 1.029654 109 141 152
0.242198 0.166001 1.205480 120 160 169
-0.067649 0.045099 0.998889 131 144 162
0.104494 0.026966 0.995452 148 153 166
0.227273 0.069318 1.006764 102 130 141
0.617272 0.944303 3.621679 56 112 121
-0.015480 0.064133 0.979630 125 135 154
0.206460 0.073333 0.999530 93 127 134
0.038723 0.195893 1.009022 60 106 117
0.029173 0.040393 0.994056 121 138 159
1.376557 0.098326 4.355587 134 166 177
-0.141311 0.166382 1.009632 97 126 141
0.765406 0.544008 2.802123 59 106 121
0.314615 0.043014 1.088804 87 117 129
-0.144791 0.078052 1.002173 110 129 143
0.020325 0.188567 1.000370 62 106 118
-0.101737 0.007016 1.036028 143 158 163
0.038943 0.154659 0.985761 83 121 135
0.209522 0.112732 1.008842 51 101 112
-0.151459 0.153737 1.008914 116 134 150
0.181047 0.108628 1.002492 58 104 113
0.141307 0.078999 0.985761 86 122 130
0.159327 0.042637 0.994056 113 128 141
0.193456 0.163228 1.071204 92 124 133
0.136391 0.126246 0.998643 60 110 120
-0.109503 0.296064 1.197709 36 96 98
-0.261092 0.145586 1.065968 51 85 96
0.065979 0.072577 0.974243 117 136 150
0.083085 0.116319 0.981461 65 104 118
-0.005602 0.040336 0.992664 118 130 153
-0.244321 0.103505 1.066288 70 105 118
0.484211 0.259649 2.072406 96 131 144
-0.098599 0.063866 0.992664 158 172 182
0.305923 0.070506 1.058723 93 125 134
-0.149754 0.121605 0.997554 146 162 171
-0.011283 0.199718 0.999664 70 111 122
0.045111 0.110027 0.974786 86 117 131
-0.233287 0.132974 1.033407 113 138 148
-0.207353 0.090863 1.032052 79 107 118
0.007095 -0.026014 1.047589 131 141 152
0.321166 0.018503 1.170936 64 88 108
-0.119720 0.116364 0.991276 147 163 174
0.183882 0.079608 0.993360 88 128 135
0.199688 0.175975 1.105713 114 140 146
-0.076597 0.228629 1.028197 88 128 137
0.337835 0.174172 1.330246 86 121 134
0.223176 0.051502 1.013966 110 134 144
0.062921 0.034831 0.995452 127 137 154
-0.049091 0.239608 1.035520 81 119 131
0.099931 0.056627 0.983709 85 104 118
-0.019155 0.198310 0.998256 73 114 125
0.359828 0.013734 1.216759 65 92 111
2.901881 0.578510 8.266652 102 161 168
0.125826 0.050108 0.986508 117 135 147
0.166963 0.169331 1.049085 91 126 139
0.055134 0.030380 0.996852 137 144 162
0.174227 0.148674 1.029048 73 117 129
0.265896 0.108671 1.024222 64 110 122
0.751589 0.515553 2.751539 65 114 128
0.080785 0.150351 0.994056 75 114 126
0.049162 0.045810 0.989891 124 139 154
-0.071591 0.203409 1.006764 66 107 121
-0.020091 0.046878 0.988855 112 126 148
0.512415 0.414944 2.467255 98 133 148
-0.004537 0.205298 1.004887 67 108 119
0.005525 0.062983 0.978953 115 130 145
0.045977 -0.002299 1.018336 119 129 142
-0.203231 0.195007 1.040767 71 107 115
-0.178673 0.254168 1.114756 51 98 104
-0.085474 0.002342 1.037339 131 146 151
0.138286 0.009143 1.012517 104 117 133
-0.111681 0.185755 1.009632 83 121 135
-0.145768 0.053945 1.016875 77 105 118
2.067442 0.302218 6.085235 112 156 166
0.078100 -0.001149 1.017540 136 141 154
0.018707 0.074828 0.974913 109 127 141
0.077122 0.189928 1.019801 64 110 119
0.016471 0.104319 0.972859 89 113 125
-0.099931 0.094379 0.983709 152 168 177
0.085227 0.170455 1.006764 57 105 114
0.637690 0.797113 3.444898 75 125 133
-0.083333 0.110000 0.984392 133 149 156
-0.082370 0.185049 0.999664 83 118 133
0.292976 0.099612 1.038251 77 109 120
2.341739 0.825613 6.649582 100 161 167
0.043386 0.219274 1.038860 159 175 182
0.001109 0.158559 0.982345 90 124 143
-0.065352 0.191549 0.998256 71 110 125
0.525715 0.487747 2.587549 67 111 123
-0.112660 0.050071 1.008196 107 126 140
0.222889 0.110873 1.012662 54 102 114
-0.151289 0.171920 1.015418 89 119 131
0.048665 -0.021365 1.051576 85 106 121
0.001110 0.055479 0.983026 134 149 166
0.582187 0.347574 2.566119 100 138 150
0.023020 -0.005755 1.019728 102 111 126
0.095093 0.071873 0.979630 107 131 143
0.032944 0.075772 0.972906 108 127 141
0.081922 -0.016866 1.067332 93 114 127
-0.144707 0.040518 1.025630 73 101 110
0.411478 0.720086 3.375459 90 129 143
0.039890 0.145155 0.981685 88 124 134
-0.180236 0.211835 1.036884 130 148 160
0.478276 0.682192 3.284727 89 128 142
2.813980 0.523112 7.990552 100 154 164
0.133796 0.139466 1.004552 79 123 133
1.308083 0.617346 3.824751 72 122 133
0.122078 0.056600 0.983231 97 121 131
-0.061007 0.003453 1.019801 113 124 137
-0.094379 0.192168 1.007408 80 118 133
0.438024 0.040344 1.702056 92 121 138
-0.026426 0.117817 0.975517 129 147 163
-0.036261 0.029462 1.003912 125 138 154
-0.152326 0.066428 1.014691 108 132 142
0.319555 0.329668 1.791840 97 129 138
-0.001099 0.113187 0.973574 112 132 150
2.912912 0.713566 8.660073 104 165 171
2.427746 1.148362 6.828151 94 153 160
0.029449 -0.022381 1.043602 114 127 141
0.015414 0.234766 1.050461 63 109 118
-0.154066 0.159772 1.011073 111 132 147
1.065044 1.430202 5.391875 83 135 144
0.555534 0.564742 2.719210 43 87 97
1.148266 0.551014 3.413790 55 105 116
0.075771 0.050142 0.987196 119 137 151
0.010148 0.028189 0.998960 114 123 145
-0.167808 0.205098 1.032428 106 127 138
-0.071097 0.018348 1.015950 109 128 136
0.062016 0.025934 0.998960 148 152 169
0.153049 0.162325 1.027228 87 126 140
-0.042146 0.020504 1.009180 131 144 158
0.164557 0.159889 1.033972 88 127 141
-0.088827 0.106593 0.983709 144 160 167
0.190155 0.095640 0.996852 75 115 124
-0.073333 0.068889 0.984392 167 177 190
0.310273 0.083857 1.061339 95 127 134
-0.154427 0.200871 1.028682 64 89 101
0.027586 0.137931 0.977603 102 131 148
-0.177916 0.116722 1.003983 176 186 187
0.014616 0.182144 0.996117 68 109 122
-0.057527 0.080759 0.980124 129 142 156
-0.226363 0.197618 1.061092 73 109 119
0.025432 0.144851 0.979630 97 128 145
0.079567 0.202428 1.036656 80 118 130
0.278726 0.276939 1.582933 96 124 135
-0.004671 -0.017516 1.034546 155 161 169
0.520234 0.763509 3.315846 75 116 127
0.160112 0.095171 0.991969 77 116 125
-0.085914 0.065830 0.988510 165 176 189
-0.040887 0.083984 0.979021 112 130 142
-0.164132 0.171019 1.016875 94 122 133
-0.027515 0.110062 0.975094 121 139 153
-0.059997 0.245870 1.042243 69 111 119
-0.146817 0.134394 1.000560 150 164 174
-0.094177 0.061664 0.993290 163 174 187
-0.200871 0.164877 1.028682 105 130 138
-0.028531 0.015977 1.011073 142 152 163
0.345016 0.045568 1.153463 92 125 139
0.063776 0.153287 0.991276 75 116 127
-0.165634 0.107042 0.998256 145 161 170
0.005610 0.181767 0.994056 73 114 127
-0.217774 0.156052 1.031752 109 139 149
0.310722 0.088778 1.062875 93 125 134
0.553142 0.725064 3.311198 83 125 133
0.376914 0.859364 3.339279 85 130 135
0.643386 0.722399 3.333390 69 115 124
0.344623 0.158860 1.135018 40 79 88
0.052820 0.110041 0.974913 73 108 123
0.171789 0.047158 0.994754 128 146 158
0.031821 0.227460 1.044140 116 146 158
0.507937 0.507937 2.528133 37 81 93
-0.170651 0.079026 1.014691 114 135 146
2.015230 0.237086 5.834633 92 131 136
-0.095822 0.137047 0.987134 131 150 164
-0.133240 0.089573 0.991969 138 154 163
-0.087231 0.026399 1.016875 101 119 133
0.156973 0.100911 0.993360 66 110 120
-0.080000 0.144444 0.984392 132 153 168
0.028690 0.065103 0.977603 105 122 141
0.309871 0.374428 1.906466 85 120 133
0.131400 0.157681 1.012300 85 129 141
0.008951 0.042517 0.991276 106 123 144
0.083433 0.022550 0.998889 155 159 172
-0.213460 0.078311 1.119024 87 122 138
0.214974 0.031052 1.058091 64 88 105
1.074670 0.586876 3.376264 117 153 163
0.328237 0.826384 3.421202 73 119 128
1.051747 1.398346 5.294306 82 134 143
1.165435 0.598793 3.560415 88 135 141
0.143533 0.078999 0.985761 87 123 131
0.516975 0.681967 3.248333 82 121 135
0.437737 0.577305 2.810247 69 115 124
0.305384 0.104567 1.052747 84 118 127
0.172317 0.178385 1.075104 92 128 134
0.168951 0.082797 0.991276 93 132 141
0.000000 0.051182 0.985761 112 127 144
0.119220 0.099164 0.987134 75 115 124
0.036055 0.216331 1.030424 101 133 144
-0.033120 0.070656 0.978095 124 139 152
0.160218 0.047057 0.992629 120 138 150
1.406518 0.150162 4.434547 108 144 154
0.084381 0.121020 0.983647 67 108 121
0.005502 0.097937 0.974913 98 117 131
-0.094051 0.186969 1.003912 86 121 136
0.032922 0.099863 0.972239 94 117 134
0.272706 0.369334 1.902397 77 116 125
0.206159 0.053239 1.003557 124 146 153
-0.058645 0.147165 0.980307 121 144 161
0.199652 0.127684 1.028384 54 104 114
0.258872 0.105850 1.019325 46 93 108
0.241465 0.367636 1.927268 70 132 133
0.078376 0.042547 0.991969 127 142 155
0.567273 0.418909 2.577316 99 134 147
0.033492 0.234445 1.059728 95 126 140
-0.253250 0.114023 1.063353 83 116 130
0.101634 0.182478 1.023210 63 111 122
1.493834 0.146763 4.643738 110 146 156
0.695230 0.757373 3.441010 66 116 124
-0.028709 0.077295 0.978277 116 134 148
-0.074501 0.066717 0.985137 170 180 193
-0.102578 0.073589 0.987822 159 169 184
0.147929 0.022585 1.000440 130 141 154
-0.006607 0.092498 0.975584 103 122 136
-0.035252 0.214925 1.007480 84 126 134
0.132512 0.091311 0.986550 80 120 127
0.314881 0.150118 1.081279 57 87 95
0.311272 0.080213 1.060664 108 138 146
0.506884 0.782558 3.939257 91 151 153
0.102098 0.085452 0.983197 103 132 147
-0.022795 0.014817 1.009784 148 158 169
0.266282 0.085303 1.021271 88 127 139
0.784517 0.576181 2.884005 75 116 127
-0.020469 0.212651 1.007480 81 123 131
0.087825 0.025897 0.997554 152 157 168
-0.065166 0.019436 1.012879 115 131 142
0.182022 0.091011 0.995452 89 125 135
0.103477 0.106815 0.985761 64 103 117
0.014762 0.199848 1.006000 60 104 116
-0.144520 0.225592 1.040958 55 79 89
0.655883 0.598011 2.848436 62 114 123
-0.031749 0.028348 1.004588 125 134 151
0.052784 0.071478 0.974243 112 133 148
0.691971 0.388321 2.586723 89 129 138
0.809735 0.429592 2.738119 74 122 134
-0.084626 0.183921 0.999664 87 120 136
0.035707 0.161797 0.988579 78 116 130
-0.025301 0.127604 0.974578 128 146 165
-0.191236 0.169215 1.026827 97 127 135
0.274954 0.131394 1.077858 57 95 109
-0.173183 0.222664 1.043755 89 114 124
0.169014 0.104789 0.998256 59 103 113
0.153191 0.020426 1.005336 105 118 132
-0.265857 0.151745 1.075511 79 113 120
0.575939 0.734040 3.334997 82 127 134
-0.082313 0.224911 1.027117 78 119 130
0.200454 0.113894 1.009050 51 99 110
-0.150257 0.223037 1.040003 66 90 100
-0.069364 0.005780 1.024222 113 124 135
-0.221679 0.154009 1.033670 113 141 150
0.428785 0.903511 3.391814 59 107 119
-0.044444 0.160000 0.984392 95 124 141
0.266282 0.087608 1.021271 84 125 138
0.360446 0.766422 3.361451 75 123 135
0.643741 0.735159 3.374696 75 121 130
1.150915 1.008324 4.511753 62 112 122
-0.072774 0.203539 1.007408 66 107 121
-0.112518 0.154149 0.996852 126 146 164
0.090039 0.196448 1.035975 71 117 126
-0.130496 0.162270 1.005336 104 131 147
-0.020720 -0.006907 1.019838 122 130 142
0.227269 0.044992 1.022081 86 114 127
0.164237 0.229104 1.222744 77 119 127
0.338020 0.037131 1.134355 84 117 131
-0.019855 0.094864 0.977266 105 123 135
0.846791 0.327982 2.641606 113 153 162
-0.224670 0.241456 1.143949 38 88 96
0.039997 0.198843 1.012445 60 106 115
-0.015653 0.181132 0.990583 81 120 132
0.019101 0.035955 0.995452 119 136 155
0.439863 0.716673 3.359459 86 124 138
0.415166 0.030867 1.367351 90 123 137
-0.214363 0.129079 1.021050 163 175 178
2.272444 1.507817 6.331061 45 105 115
0.076021 -0.015442 1.052356 98 122 134
-0.112535 0.108078 0.987134 145 161 168
0.104155 0.075346 0.981665 106 136 148
0.017607 0.072627 0.974913 112 130 146
-0.061316 0.247623 1.044678 62 107 114
-0.026161 0.020473 1.007695 140 149 164
-0.079777 0.037609 1.009697 134 147 161
0.014385 0.148271 0.980307 98 129 146
0.126403 0.062093 0.982345 88 113 123
0.150475 0.022628 1.002358 127 138 151
0.619653 0.551830 2.731260 57 105 116
0.242545 0.099068 1.008842 66 110 122
-0.201156 0.156069 1.024222 120 142 151
0.032077 0.231669 1.052552 105 136 150
0.055739 0.150494 0.987636 79 118 130
0.007948 0.018167 1.005942 139 147 161
-0.040805 0.115797 0.977057 131 150 164
1.973520 0.431486 6.266828 114 164 172
-0.049245 0.222175 1.014619 99 135 143
-0.021333 0.192000 0.994754 77 116 130
1.348869 0.225629 4.345576 101 143 151
0.371748 0.376310 2.020560 89 125 135
-0.079834 0.094248 0.982345 131 150 160
-0.262555 0.169745 1.081914 81 114 119
0.085914 0.047978 0.988510 116 134 148
0.088385 0.013598 1.003912 168 168 177
0.536001 0.710946 3.297718 81 122 133
2.414313 0.497796 7.350400 111 161 171
1.161655 0.432331 3.330650 94 140 149
0.199433 0.049858 1.003912 119 140 153
-0.077616 0.105336 0.982345 135 151 162
0.616934 0.069789 2.473187 137 165 178
0.007070 0.234478 1.043901 55 99 109
0.585514 0.533940 2.687759 56 104 115
0.226185 0.065923 1.006979 110 138 147
0.042137 0.193601 1.008950 60 106 115
-0.096148 0.182115 1.002145 90 125 141
-0.065647 0.161335 0.985761 107 131 150
1.163598 1.058295 4.664672 57 103 115
-0.035582 0.245515 1.050796 56 100 110
0.580741 0.471111 2.625045 84 124 133
1.712644 1.160919 5.091681 72 124 133
0.139130 0.114446 0.994056 52 98 110
0.032908 0.192912 1.005358 61 105 117
0.034066 0.116484 0.973574 95 123 136
0.295965 0.127857 1.048845 54 84 94
0.103431 0.009093 1.006979 150 155 163
0.971257 0.473617 3.040592 65 115 125
-0.226206 0.110771 1.033030 124 153 158
-0.128454 0.030088 1.025260 83 108 118
0.078745 0.005706 1.011073 165 167 175
-0.036210 0.031684 1.002514 130 143 161
-0.187618 0.191114 1.032428 77 111 120
0.190410 0.149017 1.047790 92 131 143
0.289789 0.113804 1.039431 54 88 99
-0.115305 0.201783 1.021543 68 109 122
0.095319 0.161135 1.005336 59 109 119
-0.161885 0.060129 1.024445 70 100 110
0.529575 0.456831 2.577902 90 125 138
0.307349 0.123893 1.055412 81 115 122
-0.250611 0.190709 1.083072 115 139 149
0.072358 0.051207 0.986241 119 137 151
-0.094379 0.104372 0.983709 148 164 173
0.154875 0.077994 0.987134 85 121 129
-0.219642 0.213574 1.075095 53 98 103
0.027029 0.181319 0.997765 61 105 118
0.315070 0.101015 1.065407 97 133 141
0.057182 0.094570 0.974243 84 115 129
-0.142024 0.069308 1.006614 129 147 161
-0.186667 0.175072 1.027191 79 109 117
0.563890 0.472368 2.615599 80 121 134
-0.020908 0.108941 0.974913 119 138 152
-0.047933 0.168321 0.987581 88 123 139
-0.070001 0.218035 1.016678 73 119 128
0.026235 0.009125 1.010547 164 165 177
-0.186496 0.100071 1.007480 116 136 142
0.287310 0.078251 1.034727 88 118 128
2.788795 0.682970 8.403878 100 159 166
1.199903 0.537619 3.451484 57 107 118
0.022378 0.171189 0.991276 72 110 128
