ply
format ascii 1.0
element vertex 1170
property float x
property float y
property float z
property uchar red
property uchar green
property uchar blue
end_header
-0.142080 -0.090880 0.768827 171 168 161
-0.140901 -0.090945 0.769381 169 166 159
-0.139642 -0.090959 0.769499 168 165 158
-0.138462 -0.091026 0.770060 168 162 158
-0.137278 -0.091091 0.770615 164 158 154
-0.136006 -0.091099 0.770677 162 156 152
-0.134828 -0.091170 0.771277 160 154 150
-0.133547 -0.091172 0.771296 158 152 148
-0.132263 -0.091172 0.771296 156 150 146
-0.130979 -0.091172 0.771296 152 149 144
-0.129799 -0.091245 0.771915 151 148 143
-0.128514 -0.091245 0.771915 149 146 141
-0.127340 -0.091325 0.772592 145 142 137
-0.126136 -0.091384 0.773095 139 138 132
-0.124941 -0.091451 0.773661 130 129 123
-0.292289 -0.087812 0.753487 84 93 74
-0.290909 -0.087774 0.753162 83 96 76
-0.289655 -0.087774 0.753162 83 96 76
-0.251104 -0.088328 0.757914 112 124 111
-0.249842 -0.088328 0.757914 117 132 115
-0.248580 -0.088328 0.757914 121 136 119
-0.247391 -0.088354 0.758135 120 135 118
-0.246251 -0.088398 0.758512 121 136 119
-0.244988 -0.088398 0.758512 122 131 116
-0.243725 -0.088398 0.758512 120 129 114
-0.242480 -0.088404 0.758566 122 131 112
-0.241390 -0.088468 0.759111 122 131 112
-0.240126 -0.088468 0.759111 117 132 113
-0.238864 -0.088468 0.759117 119 134 115
-0.237702 -0.088506 0.759441 117 132 115
-0.236370 -0.088481 0.759225 117 132 115
-0.235140 -0.088493 0.759333 109 134 114
-0.233992 -0.088538 0.759711 109 134 114
-0.232727 -0.088538 0.759711 109 133 116
-0.231298 -0.088475 0.759171 110 134 117
-0.230181 -0.088531 0.759657 113 131 117
-0.228938 -0.088540 0.759729 115 133 119
-0.227799 -0.088589 0.760150 116 131 117
-0.226582 -0.088608 0.760312 117 132 118
-0.225316 -0.088608 0.760312 118 132 119
-0.224051 -0.088608 0.760312 118 132 119
-0.222785 -0.088608 0.760312 120 134 121
-0.221519 -0.088608 0.760312 125 139 126
-0.220410 -0.088671 0.760854 131 145 132
-0.218987 -0.088608 0.760312 132 146 133
-0.217894 -0.088678 0.760914 137 149 137
-0.216627 -0.088678 0.760914 139 151 139
-0.215360 -0.088678 0.760914 142 151 142
-0.214093 -0.088678 0.760914 144 153 144
-0.212995 -0.088748 0.761517 147 155 146
-0.211727 -0.088748 0.761517 150 158 149
-0.210460 -0.088748 0.761517 153 162 153
-0.209192 -0.088748 0.761517 157 166 157
-0.207924 -0.088748 0.761517 158 167 158
-0.206656 -0.088748 0.761517 158 167 158
-0.205388 -0.088748 0.761517 161 169 160
-0.204120 -0.088748 0.761517 162 170 161
-0.202853 -0.088748 0.761517 163 171 160
-0.201745 -0.088818 0.762121 160 168 157
-0.200476 -0.088818 0.762121 158 166 155
-0.199065 -0.088755 0.761577 157 165 154
-0.197781 -0.088748 0.761517 156 165 154
-0.196627 -0.088799 0.761958 155 164 153
-0.195414 -0.088825 0.762175 157 162 151
-0.194286 -0.088889 0.762726 156 161 150
-0.193016 -0.088889 0.762726 157 160 151
-0.191746 -0.088889 0.762726 155 158 149
-0.190476 -0.088889 0.762726 157 158 149
-0.189206 -0.088889 0.762726 156 157 148
-0.187936 -0.088889 0.762726 157 158 149
-0.186668 -0.088890 0.762732 159 160 151
-0.185401 -0.088891 0.762744 160 159 151
-0.184229 -0.088938 0.763150 161 160 152
-0.183002 -0.088959 0.763332 165 164 156
-0.181732 -0.088959 0.763332 169 168 160
-0.180461 -0.088959 0.763332 171 170 162
-0.179294 -0.089011 0.763774 171 170 162
-0.178060 -0.089030 0.763938 173 170 163
-0.176789 -0.089030 0.763938 173 170 163
-0.175517 -0.089030 0.763938 175 172 165
-0.174245 -0.089030 0.763938 176 173 166
-0.172973 -0.089030 0.763938 180 173 167
-0.171834 -0.089099 0.764528 180 173 167
-0.170565 -0.089101 0.764546 184 174 169
-0.169292 -0.089101 0.764546 184 174 169
-0.168139 -0.089165 0.765094 184 174 169
-0.166879 -0.089172 0.765155 185 175 170
-0.165605 -0.089172 0.765155 182 176 170
-0.164331 -0.089172 0.765155 183 177 171
-0.163122 -0.089207 0.765460 186 176 171
-0.161912 -0.089243 0.765764 187 177 172
-0.160676 -0.089264 0.765948 187 177 172
-0.159490 -0.089314 0.766375 186 176 171
-0.158214 -0.089314 0.766375 186 176 171
-0.156938 -0.089314 0.766375 186 176 171
-0.155662 -0.089314 0.766375 185 175 170
-0.154509 -0.089385 0.766987 186 176 171
-0.153232 -0.089385 0.766987 183 176 169
-0.151955 -0.089385 0.766987 181 174 167
-0.150684 -0.089389 0.767017 182 175 168
-0.149521 -0.089457 0.767599 181 174 167
-0.148243 -0.089457 0.767599 176 173 165
-0.146965 -0.089457 0.767599 175 172 164
-0.145803 -0.089528 0.768213 178 171 164
-0.144524 -0.089528 0.768213 178 171 164
-0.143360 -0.089600 0.768827 175 172 165
-0.142114 -0.089622 0.769012 174 171 164
-0.140913 -0.089672 0.769443 171 168 161
-0.139744 -0.089744 0.770060 170 167 160
-0.138517 -0.089780 0.770368 168 165 158
-0.137289 -0.089816 0.770677 165 162 155
-0.136039 -0.089837 0.770863 161 158 151
-0.134831 -0.089888 0.771296 158 155 148
-0.133634 -0.089946 0.771797 158 152 146
-0.132369 -0.089960 0.771915 157 151 145
-0.131084 -0.089960 0.771915 156 150 144
-0.129830 -0.089982 0.772101 154 148 142
-0.128617 -0.090032 0.772536 152 149 142
-0.127341 -0.090039 0.772598 149 146 139
-0.126192 -0.090137 0.773437 147 144 137
-0.124960 -0.090177 0.773780 142 139 132
-0.123672 -0.090177 0.773780 131 130 124
-0.122383 -0.090177 0.773780 120 119 113
-0.292622 -0.086656 0.754344 82 91 72
-0.291206 -0.086609 0.753930 80 93 73
-0.289951 -0.086609 0.753930 80 93 73
-0.251164 -0.087087 0.758093 109 121 108
-0.250069 -0.087145 0.758602 114 129 112
-0.248836 -0.087156 0.758691 118 133 116
-0.247613 -0.087170 0.758817 118 133 116
-0.246446 -0.087204 0.759111 119 134 117
-0.245182 -0.087204 0.759111 122 131 116
-0.243918 -0.087204 0.759111 118 127 112
-0.242654 -0.087204 0.759111 118 127 108
-0.241487 -0.087239 0.759417 118 127 108
-0.240316 -0.087273 0.759711 115 130 111
-0.239108 -0.087293 0.759891 116 131 112
-0.237843 -0.087293 0.759891 116 131 114
-0.236578 -0.087293 0.759891 116 131 114
-0.235257 -0.087273 0.759711 109 134 114
-0.234031 -0.087287 0.759837 108 133 113
-0.232782 -0.087293 0.759891 107 131 114
-0.231517 -0.087293 0.759891 108 132 115
-0.230252 -0.087293 0.759891 112 130 116
-0.229114 -0.087342 0.760312 110 128 114
-0.227848 -0.087342 0.760312 113 128 114
-0.226582 -0.087342 0.760312 111 126 112
-0.225316 -0.087342 0.760312 113 127 114
-0.224051 -0.087342 0.760312 114 128 115
-0.222822 -0.087356 0.760438 117 131 118
-0.221658 -0.087396 0.760787 119 133 120
-0.220428 -0.087411 0.760914 123 137 124
-0.219161 -0.087411 0.760914 125 139 126
-0.217894 -0.087411 0.760914 129 141 129
-0.216643 -0.087417 0.760968 130 142 130
-0.215396 -0.087425 0.761041 134 143 134
-0.214156 -0.087437 0.761137 136 145 136
-0.212995 -0.087480 0.761517 139 147 138
-0.211727 -0.087480 0.761517 143 151 142
-0.210460 -0.087480 0.761517 146 155 146
-0.209192 -0.087480 0.761517 150 159 150
-0.207973 -0.087501 0.761698 154 163 154
-0.206705 -0.087501 0.761698 155 164 155
-0.205437 -0.087501 0.761698 158 166 157
-0.204203 -0.087516 0.761825 160 168 159
-0.203013 -0.087550 0.762121 161 169 158
-0.201745 -0.087550 0.762121 160 168 157
-0.200476 -0.087550 0.762121 159 167 156
-0.199207 -0.087550 0.762121 159 167 156
-0.197938 -0.087550 0.762121 159 168 157
-0.196669 -0.087550 0.762121 157 166 155
-0.195556 -0.087619 0.762726 157 162 151
-0.194286 -0.087619 0.762726 156 161 150
-0.193016 -0.087619 0.762726 156 159 150
-0.191746 -0.087619 0.762726 155 158 149
-0.190490 -0.087625 0.762780 156 157 148
-0.189211 -0.087621 0.762744 155 156 147
-0.188086 -0.087689 0.763332 155 156 147
-0.186815 -0.087689 0.763332 156 157 148
-0.185544 -0.087689 0.763332 157 156 148
-0.184273 -0.087689 0.763332 158 157 149
-0.183002 -0.087689 0.763332 162 161 153
-0.181732 -0.087689 0.763332 166 165 157
-0.180504 -0.087710 0.763513 166 165 157
-0.179302 -0.087744 0.763811 167 166 158
-0.178060 -0.087758 0.763938 168 165 158
-0.176789 -0.087758 0.763938 168 165 158
-0.175517 -0.087758 0.763938 170 167 160
-0.174245 -0.087758 0.763938 173 170 163
-0.172985 -0.087765 0.763993 177 170 164
-0.171838 -0.087828 0.764546 178 171 165
-0.170606 -0.087849 0.764729 181 171 166
-0.169332 -0.087849 0.764729 182 172 167
-0.168153 -0.087898 0.765155 181 171 166
-0.166879 -0.087898 0.765155 182 172 167
-0.165605 -0.087898 0.765155 180 174 168
-0.164331 -0.087898 0.765155 181 175 169
-0.163187 -0.087968 0.765764 185 175 170
-0.161947 -0.087987 0.765929 186 176 171
-0.160766 -0.088038 0.766375 186 176 171
-0.159490 -0.088038 0.766375 187 177 172
-0.158214 -0.088038 0.766375 186 176 171
-0.156938 -0.088038 0.766375 185 175 170
-0.155774 -0.088102 0.766926 185 175 170
-0.154509 -0.088109 0.766987 186 176 171
-0.153269 -0.088130 0.767170 183 176 169
-0.152077 -0.088179 0.767599 182 175 168
-0.150799 -0.088179 0.767599 182 175 168
-0.149521 -0.088179 0.767599 182 175 168
-0.148303 -0.088215 0.767912 178 175 167
-0.147082 -0.088249 0.768213 175 172 164
-0.145847 -0.088276 0.768440 180 173 166
-0.144640 -0.088320 0.768827 179 172 165
-0.143360 -0.088320 0.768827 176 173 166
-0.142194 -0.088391 0.769443 175 172 165
-0.141002 -0.088447 0.769930 175 172 165
-0.139747 -0.088464 0.770078 172 169 162
-0.138573 -0.088532 0.770677 170 167 160
-0.137392 -0.088599 0.771252 166 163 156
-0.136116 -0.088604 0.771296 162 159 152
-0.134831 -0.088604 0.771296 159 156 149
-0.133655 -0.088675 0.771915 159 153 147
-0.132369 -0.088675 0.771915 158 152 146
-0.131116 -0.088696 0.772101 157 151 145
-0.129904 -0.088746 0.772536 154 148 142
-0.128617 -0.088746 0.772536 152 149 142
-0.127437 -0.088820 0.773176 150 147 140
-0.126212 -0.088864 0.773562 147 144 137
-0.124960 -0.088889 0.773780 148 145 138
-0.123680 -0.088895 0.773836 142 141 135
-0.122482 -0.088961 0.774403 137 136 130
-0.121290 -0.089032 0.775028 128 128 124
-0.292679 -0.085417 0.754492 77 90 72
-0.291366 -0.085400 0.754344 78 88 71
-0.290110 -0.085400 0.754344 79 89 72
-0.250237 -0.085940 0.759111 110 126 107
-0.248973 -0.085940 0.759111 114 130 111
-0.247905 -0.086008 0.759711 119 132 116
-0.246640 -0.086008 0.759711 119 132 116
-0.245375 -0.086008 0.759711 118 131 113
-0.244111 -0.086008 0.759711 115 128 110
-0.242846 -0.086008 0.759711 114 123 106
-0.241772 -0.086076 0.760312 113 122 105
-0.240506 -0.086076 0.760312 107 123 106
-0.239240 -0.086076 0.760312 110 126 109
-0.238022 -0.086093 0.760462 113 128 109
-0.236709 -0.086076 0.760312 114 129 110
-0.235443 -0.086076 0.760312 109 133 113
-0.234177 -0.086076 0.760312 108 132 112
-0.232994 -0.086107 0.760583 104 134 112
-0.231646 -0.086076 0.760312 103 133 111
-0.230380 -0.086076 0.760312 103 133 111
-0.229205 -0.086110 0.760613 103 133 111
-0.227965 -0.086120 0.760703 104 130 112
-0.226681 -0.086113 0.760643 104 130 112
-0.225495 -0.086144 0.760914 107 127 112
-0.224228 -0.086144 0.760914 108 128 113
-0.222961 -0.086144 0.760914 111 131 116
-0.221817 -0.086192 0.761336 113 133 118
-0.220602 -0.086212 0.761517 116 136 121
-0.219334 -0.086212 0.761517 117 137 122
-0.218067 -0.086212 0.761517 119 139 126
-0.216799 -0.086212 0.761517 122 142 129
-0.215531 -0.086212 0.761517 124 142 130
-0.214263 -0.086212 0.761517 125 143 131
-0.212995 -0.086212 0.761517 129 144 131
-0.211727 -0.086212 0.761517 132 147 134
-0.210460 -0.086212 0.761517 135 149 136
-0.209308 -0.086260 0.761940 140 154 141
-0.208089 -0.086281 0.762121 146 158 146
-0.206820 -0.086281 0.762121 148 160 148
-0.205551 -0.086281 0.762121 153 162 151
-0.204444 -0.086349 0.762726 154 163 152
-0.203118 -0.086325 0.762514 153 165 155
-0.201825 -0.086315 0.762423 156 168 158
-0.200635 -0.086349 0.762726 157 169 157
-0.199365 -0.086349 0.762726 157 169 157
-0.198095 -0.086349 0.762726 161 170 159
-0.196825 -0.086349 0.762726 160 169 158
-0.195556 -0.086349 0.762726 156 165 154
-0.194286 -0.086349 0.762726 155 164 153
-0.193016 -0.086349 0.762726 154 162 151
-0.191822 -0.086383 0.763028 151 159 148
-0.190627 -0.086418 0.763332 152 155 146
-0.189289 -0.086387 0.763059 152 155 146
-0.188086 -0.086418 0.763332 155 156 147
-0.186882 -0.086449 0.763604 154 155 146
-0.185544 -0.086418 0.763332 153 154 145
-0.184324 -0.086442 0.763544 153 154 145
-0.183141 -0.086483 0.763908 157 156 147
-0.181840 -0.086469 0.763787 161 160 151
-0.180604 -0.086486 0.763938 160 161 151
-0.179332 -0.086486 0.763938 161 162 152
-0.178060 -0.086486 0.763938 163 162 153
-0.176789 -0.086486 0.763938 164 163 154
-0.175517 -0.086486 0.763938 166 163 156
-0.174245 -0.086486 0.763938 168 165 158
-0.173062 -0.086531 0.764333 173 167 161
-0.171838 -0.086555 0.764546 174 168 162
-0.170701 -0.086624 0.765155 173 170 163
-0.169427 -0.086624 0.765155 173 170 163
-0.168153 -0.086624 0.765155 175 169 163
-0.166879 -0.086624 0.765155 176 170 164
-0.165605 -0.086624 0.765155 180 170 165
-0.164397 -0.086659 0.765460 181 171 166
-0.163220 -0.086710 0.765917 179 173 167
-0.162035 -0.086759 0.766345 180 174 168
-0.160766 -0.086762 0.766375 181 175 169
-0.159490 -0.086762 0.766375 181 175 169
-0.158214 -0.086762 0.766375 183 176 170
-0.156938 -0.086762 0.766375 184 177 171
-0.155780 -0.086828 0.766956 184 177 170
-0.154528 -0.086842 0.767079 183 176 169
-0.153355 -0.086901 0.767599 183 176 169
-0.152077 -0.086901 0.767599 183 176 169
-0.150799 -0.086901 0.767599 183 176 169
-0.149521 -0.086901 0.767599 183 176 169
-0.148361 -0.086970 0.768213 179 176 168
-0.147165 -0.087019 0.768643 177 174 166
-0.145920 -0.087040 0.768827 179 173 166
-0.144640 -0.087040 0.768827 179 173 166
-0.143360 -0.087040 0.768827 180 173 166
-0.142228 -0.087131 0.769628 180 173 166
-0.141026 -0.087179 0.770060 179 173 167
-0.139755 -0.087186 0.770121 177 171 165
-0.138628 -0.087284 0.770986 173 167 161
-0.137400 -0.087319 0.771296 168 162 156
-0.136116 -0.087319 0.771296 165 159 153
-0.134869 -0.087344 0.771512 164 158 152
-0.133655 -0.087390 0.771915 159 158 150
-0.132423 -0.087425 0.772225 159 158 150
-0.131190 -0.087460 0.772536 161 155 148
-0.129904 -0.087460 0.772536 158 152 145
-0.128705 -0.087520 0.773064 153 152 144
-0.127490 -0.087569 0.773499 152 151 143
-0.126248 -0.087601 0.773780 148 149 140
-0.125050 -0.087664 0.774341 145 146 137
-0.123771 -0.087671 0.774403 144 145 138
-0.122551 -0.087721 0.774840 142 143 136
-0.121388 -0.087813 0.775653 136 141 133
-0.120121 -0.087830 0.775810 129 134 126
-0.291595 -0.084211 0.754937 77 87 70
-0.247964 -0.084763 0.759891 118 131 115
-0.246777 -0.084790 0.760132 117 130 114
-0.245389 -0.084748 0.759753 118 131 113
-0.244178 -0.084767 0.759921 116 129 111
-0.243032 -0.084808 0.760294 114 123 106
-0.241772 -0.084810 0.760312 110 119 102
-0.240506 -0.084810 0.760312 105 121 104
-0.239240 -0.084810 0.760312 105 121 104
-0.237975 -0.084810 0.760312 109 124 105
-0.236883 -0.084873 0.760872 114 129 110
-0.235629 -0.084877 0.760914 107 131 111
-0.234346 -0.084871 0.760860 107 131 111
-0.233096 -0.084877 0.760914 103 133 111
-0.231801 -0.084867 0.760824 101 131 109
-0.230507 -0.084857 0.760733 100 130 108
-0.229295 -0.084877 0.760914 100 130 108
-0.228028 -0.084877 0.760914 103 129 111
-0.226774 -0.084882 0.760956 103 129 111
-0.225620 -0.084924 0.761336 107 127 112
-0.224400 -0.084943 0.761499 107 127 112
-0.223138 -0.084945 0.761517 108 128 113
-0.221870 -0.084945 0.761517 110 130 115
-0.220614 -0.084949 0.761559 113 133 118
-0.219334 -0.084945 0.761517 115 135 120
-0.218175 -0.084987 0.761897 116 136 123
-0.216971 -0.085012 0.762121 118 138 125
-0.215686 -0.085006 0.762066 120 138 126
-0.214428 -0.085010 0.762103 121 139 127
-0.213139 -0.085002 0.762030 125 140 127
-0.211833 -0.084987 0.761897 128 143 130
-0.210591 -0.084998 0.761994 132 146 133
-0.209358 -0.085012 0.762121 136 150 137
-0.208193 -0.085054 0.762502 140 152 140
-0.206820 -0.085012 0.762121 142 154 142
-0.205595 -0.085030 0.762284 146 155 144
-0.204444 -0.085079 0.762726 148 157 146
-0.203175 -0.085079 0.762726 148 160 150
-0.201905 -0.085079 0.762726 153 165 155
-0.200635 -0.085079 0.762726 155 167 155
-0.199365 -0.085079 0.762726 157 169 157
-0.198095 -0.085079 0.762726 160 169 158
-0.196825 -0.085079 0.762726 161 170 159
-0.195556 -0.085079 0.762726 158 167 156
-0.194286 -0.085079 0.762726 155 164 153
-0.193165 -0.085145 0.763313 154 162 151
-0.191898 -0.085147 0.763332 152 160 149
-0.190627 -0.085147 0.763332 153 156 147
-0.189357 -0.085147 0.763332 152 155 146
-0.188086 -0.085147 0.763332 154 155 146
-0.186815 -0.085147 0.763332 154 155 146
-0.185544 -0.085147 0.763332 154 155 146
-0.184420 -0.085215 0.763938 153 154 145
-0.183148 -0.085215 0.763938 154 153 144
-0.181876 -0.085215 0.763938 156 155 146
-0.180604 -0.085215 0.763938 155 156 146
-0.179332 -0.085215 0.763938 157 158 148
-0.178060 -0.085215 0.763938 161 160 151
-0.176789 -0.085215 0.763938 162 161 152
-0.175517 -0.085215 0.763938 163 160 153
-0.174286 -0.085235 0.764121 164 161 154
-0.173111 -0.085282 0.764546 169 163 157
-0.171838 -0.085282 0.764546 172 166 160
-0.170701 -0.085350 0.765155 171 168 161
-0.169427 -0.085350 0.765155 171 168 161
-0.168153 -0.085350 0.765155 173 167 161
-0.166879 -0.085350 0.765155 174 168 162
-0.165605 -0.085350 0.765155 178 168 163
-0.164462 -0.085418 0.765764 179 169 164
-0.163187 -0.085418 0.765764 177 171 165
-0.162029 -0.085480 0.766314 178 172 166
-0.160766 -0.085486 0.766375 179 173 167
-0.159490 -0.085486 0.766375 180 174 168
-0.158257 -0.085510 0.766583 181 174 168
-0.157063 -0.085555 0.766987 182 175 169
-0.155786 -0.085555 0.766987 183 176 169
-0.154633 -0.085623 0.767599 183 176 169
-0.153355 -0.085623 0.767599 183 176 169
-0.152077 -0.085623 0.767599 183 176 169
-0.150859 -0.085657 0.767906 183 176 169
-0.149640 -0.085691 0.768213 183 176 169
-0.148397 -0.085712 0.768397 179 176 168
-0.147118 -0.085712 0.768397 177 174 166
-0.145846 -0.085717 0.768440 179 173 166
-0.144640 -0.085760 0.768827 179 173 166
-0.143475 -0.085829 0.769443 181 174 167
-0.142308 -0.085897 0.770060 180 173 166
-0.141026 -0.085897 0.770060 178 172 166
-0.139856 -0.085966 0.770677 178 172 166
-0.138684 -0.086035 0.771296 174 168 162
-0.137400 -0.086035 0.771296 170 164 158
-0.136148 -0.086056 0.771481 167 161 155
-0.134940 -0.086104 0.771915 165 159 153
-0.133762 -0.086174 0.772536 161 160 152
-0.132476 -0.086174 0.772536 161 160 152
-0.131190 -0.086174 0.772536 161 155 148
-0.129904 -0.086174 0.772536 160 154 147
-0.128721 -0.086243 0.773157 155 154 146
-0.127536 -0.086312 0.773780 153 152 144
-0.126284 -0.086337 0.773998 150 151 142
-0.125060 -0.086382 0.774403 146 147 138
-0.123801 -0.086403 0.774590 144 145 138
-0.122581 -0.086452 0.775028 143 144 137
-0.121486 -0.086591 0.776280 140 145 137
-0.120194 -0.086591 0.776280 137 142 134
-0.118995 -0.086659 0.776888 127 138 131
-0.117724 -0.086676 0.777039 120 131 124
-0.244304 -0.083544 0.760312 112 128 109
-0.243211 -0.083604 0.760854 110 126 109
-0.241950 -0.083606 0.760872 107 123 106
-0.240697 -0.083610 0.760914 106 121 102
-0.239430 -0.083610 0.760914 105 120 101
-0.238163 -0.083610 0.760914 107 122 105
-0.236896 -0.083610 0.760914 111 126 109
-0.235629 -0.083610 0.760914 106 129 112
-0.234493 -0.083657 0.761336 106 129 112
-0.233279 -0.083676 0.761511 104 130 112
-0.231994 -0.083670 0.761457 102 128 110
-0.230727 -0.083670 0.761457 99 128 110
-0.229459 -0.083670 0.761457 98 127 109
-0.228204 -0.083675 0.761499 99 128 110
-0.226941 -0.083677 0.761517 99 128 110
-0.225674 -0.083677 0.761517 102 126 110
-0.224406 -0.083677 0.761517 102 126 110
-0.223138 -0.083677 0.761517 104 128 112
-0.221981 -0.083718 0.761897 106 130 114
-0.220793 -0.083749 0.762175 109 132 118
-0.219587 -0.083773 0.762393 111 134 120
-0.218380 -0.083797 0.762611 112 135 121
-0.217126 -0.083803 0.762665 114 137 123
-0.215810 -0.083785 0.762502 118 136 122
-0.214571 -0.083797 0.762611 119 137 123
-0.213240 -0.083773 0.762393 122 140 126
-0.211895 -0.083743 0.762121 125 143 129
-0.210626 -0.083743 0.762121 129 144 131
-0.209519 -0.083808 0.762708 130 145 132
-0.208254 -0.083810 0.762726 133 148 135
-0.206976 -0.083806 0.762695 137 152 139
-0.205713 -0.083809 0.762720 136 154 140
-0.204444 -0.083810 0.762726 137 155 141
-0.203175 -0.083810 0.762726 138 156 144
-0.201905 -0.083810 0.762726 142 160 148
-0.200635 -0.083810 0.762726 148 163 152
-0.199365 -0.083810 0.762726 152 167 156
-0.198095 -0.083810 0.762726 156 165 154
-0.196825 -0.083810 0.762726 159 168 157
-0.195570 -0.083816 0.762780 159 168 156
-0.194432 -0.083873 0.763301 155 164 152
-0.193169 -0.083876 0.763332 153 162 151
-0.191898 -0.083876 0.763332 153 162 151
-0.190627 -0.083876 0.763332 152 160 149
-0.189357 -0.083876 0.763332 150 158 147
-0.188086 -0.083876 0.763332 152 155 146
-0.186949 -0.083936 0.763878 151 154 145
-0.185652 -0.083925 0.763774 151 156 146
-0.184420 -0.083943 0.763938 151 156 146
-0.183148 -0.083943 0.763938 153 154 144
-0.181876 -0.083943 0.763938 152 153 143
-0.180604 -0.083943 0.763938 153 152 143
-0.179332 -0.083943 0.763938 154 153 144
-0.178060 -0.083943 0.763938 155 156 146
-0.176789 -0.083943 0.763938 157 158 148
-0.175580 -0.083973 0.764212 159 156 148
-0.174245 -0.083943 0.763938 160 157 149
-0.173111 -0.084010 0.764546 162 159 151
-0.171924 -0.084052 0.764929 164 161 153
-0.170701 -0.084076 0.765155 165 164 155
-0.169427 -0.084076 0.765155 167 166 157
-0.168153 -0.084076 0.765155 170 164 157
-0.166915 -0.084095 0.765319 171 165 158
-0.165733 -0.084141 0.765746 173 166 159
-0.164462 -0.084143 0.765764 175 168 161
-0.163187 -0.084143 0.765764 174 168 161
-0.162029 -0.084204 0.766314 175 169 162
-0.160766 -0.084211 0.766375 178 171 164
-0.159570 -0.084253 0.766760 179 172 165
-0.158340 -0.084278 0.766987 180 173 166
-0.157063 -0.084278 0.766987 182 175 168
-0.155887 -0.084332 0.767483 180 178 167
-0.154633 -0.084345 0.767599 179 177 166
-0.153355 -0.084345 0.767599 178 175 167
-0.152198 -0.084412 0.768213 178 175 167
-0.150919 -0.084412 0.768213 180 177 169
-0.149640 -0.084412 0.768213 179 176 168
-0.148480 -0.084480 0.768827 179 176 168
-0.147200 -0.084480 0.768827 178 175 167
-0.145920 -0.084480 0.768827 179 173 166
-0.144750 -0.084544 0.769412 179 173 166
-0.143589 -0.084615 0.770053 177 174 166
-0.142308 -0.084615 0.770060 177 174 166
-0.141135 -0.084681 0.770659 178 172 165
-0.139968 -0.084751 0.771296 175 169 162
-0.138684 -0.084751 0.771296 170 164 157
-0.137509 -0.084819 0.771909 168 162 155
-0.136225 -0.084819 0.771915 167 161 154
-0.135048 -0.084887 0.772536 166 160 153
-0.133762 -0.084887 0.772536 164 158 151
-0.132476 -0.084887 0.772536 162 156 149
-0.131285 -0.084949 0.773095 159 158 149
-0.130001 -0.084951 0.773114 158 157 148
-0.128793 -0.085004 0.773593 157 156 147
-0.127547 -0.085031 0.773842 156 155 146
-0.126350 -0.085093 0.774403 154 151 143
-0.125160 -0.085161 0.775021 150 147 139
-0.123898 -0.085180 0.775197 149 148 140
-0.122739 -0.085271 0.776029 148 147 139
-0.121495 -0.085305 0.776336 138 147 136
-0.120286 -0.085364 0.776876 135 144 133
-0.119094 -0.085437 0.777536 129 143 132
-0.117799 -0.085437 0.777536 125 139 128
-0.116505 -0.085437 0.777536 120 134 123
-0.115210 -0.085437 0.777536 113 127 116
-0.287142 -0.081861 0.756452 79 92 76
-0.285984 -0.081890 0.756720 79 92 76
-0.280126 -0.082019 0.757914 70 83 65
-0.242155 -0.082409 0.761517 107 123 106
-0.240887 -0.082409 0.761517 108 123 104
-0.239620 -0.082409 0.761517 107 122 103
-0.238352 -0.082409 0.761517 107 122 105
-0.237084 -0.082409 0.761517 108 123 106
-0.235816 -0.082409 0.761517 102 125 108
-0.234548 -0.082409 0.761517 102 125 108
-0.233299 -0.082415 0.761577 99 125 107
-0.232022 -0.082412 0.761547 99 125 107
-0.230763 -0.082415 0.761577 97 126 108
-0.229659 -0.082474 0.762121 97 126 108
-0.228390 -0.082474 0.762121 98 127 109
-0.227121 -0.082474 0.762121 96 125 107
-0.225852 -0.082474 0.762121 99 123 107
-0.224584 -0.082474 0.762121 101 125 109
-0.223320 -0.082476 0.762139 103 127 111
-0.222175 -0.082522 0.762562 105 129 113
-0.220952 -0.082540 0.762726 108 131 117
-0.219683 -0.082540 0.762726 109 132 118
-0.218413 -0.082540 0.762726 111 134 120
-0.217143 -0.082540 0.762726 113 136 122
-0.215873 -0.082540 0.762726 116 134 120
-0.214603 -0.082540 0.762726 117 135 121
-0.213333 -0.082540 0.762726 119 137 123
-0.212063 -0.082540 0.762726 120 138 124
-0.210794 -0.082540 0.762726 125 140 127
-0.209524 -0.082540 0.762726 126 141 128
-0.208254 -0.082540 0.762726 129 144 131
-0.206984 -0.082540 0.762726 133 148 135
-0.205714 -0.082540 0.762726 132 150 136
-0.204444 -0.082540 0.762726 133 151 137
-0.203175 -0.082540 0.762726 134 152 140
-0.202065 -0.082605 0.763332 137 155 143
-0.200794 -0.082605 0.763332 143 158 147
-0.199523 -0.082605 0.763332 147 162 151
-0.198253 -0.082605 0.763332 151 160 149
-0.196982 -0.082605 0.763332 154 163 152
-0.195711 -0.082605 0.763332 154 163 151
-0.194440 -0.082605 0.763332 154 163 151
-0.193185 -0.082612 0.763392 154 163 152
-0.191914 -0.082612 0.763392 153 162 151
-0.190627 -0.082605 0.763332 153 161 150
-0.189372 -0.082612 0.763392 151 159 148
-0.188101 -0.082612 0.763392 154 157 148
-0.186963 -0.082671 0.763938 154 157 148
-0.185692 -0.082671 0.763938 153 158 148
-0.184420 -0.082671 0.763938 152 157 147
-0.183148 -0.082671 0.763938 154 155 145
-0.181876 -0.082671 0.763938 151 152 142
-0.180604 -0.082671 0.763938 151 150 141
-0.179332 -0.082671 0.763938 152 151 142
-0.178060 -0.082671 0.763938 152 153 143
-0.176902 -0.082724 0.764430 153 154 144
-0.175656 -0.082737 0.764546 156 153 145
-0.174383 -0.082737 0.764546 156 153 145
-0.173111 -0.082737 0.764546 157 154 146
-0.171975 -0.082803 0.765155 159 156 148
-0.170701 -0.082803 0.765155 160 159 150
-0.169427 -0.082803 0.765155 162 161 152
-0.168286 -0.082868 0.765758 166 160 153
-0.167012 -0.082869 0.765764 167 161 154
-0.165737 -0.082869 0.765764 169 162 155
-0.164487 -0.082881 0.765880 172 165 158
-0.163317 -0.082935 0.766375 172 166 159
-0.162041 -0.082935 0.766375 173 167 160
-0.160804 -0.082954 0.766558 175 168 161
-0.159617 -0.083001 0.766987 176 169 162
-0.158466 -0.083067 0.767599 179 172 165
-0.157189 -0.083067 0.767599 181 174 167
-0.155911 -0.083067 0.767599 178 176 165
-0.154633 -0.083067 0.767599 178 176 165
-0.153477 -0.083133 0.768213 178 175 167
-0.152210 -0.083140 0.768274 178 175 167
-0.151040 -0.083200 0.768827 178 175 167
-0.149760 -0.083200 0.768827 178 175 167
-0.148480 -0.083200 0.768827 179 176 168
-0.147200 -0.083200 0.768827 178 175 167
-0.145932 -0.083207 0.768889 180 174 167
-0.144808 -0.083297 0.769720 179 173 166
-0.143590 -0.083333 0.770060 177 174 166
-0.142422 -0.083400 0.770677 176 173 165
-0.141252 -0.083467 0.771296 175 169 162
-0.139968 -0.083467 0.771296 173 167 160
-0.138795 -0.083534 0.771915 170 164 157
-0.137619 -0.083601 0.772529 168 162 155
-0.136334 -0.083601 0.772536 166 160 153
-0.135048 -0.083601 0.772536 164 158 151
-0.133870 -0.083669 0.773157 163 157 150
-0.132582 -0.083669 0.773157 162 156 149
-0.131295 -0.083669 0.773157 158 157 148
-0.130110 -0.083734 0.773761 158 157 148
-0.128824 -0.083736 0.773780 159 158 149
-0.127639 -0.083803 0.774403 157 156 147
-0.126452 -0.083871 0.775028 157 154 146
-0.125252 -0.083932 0.775591 153 150 142
-0.124008 -0.083964 0.775885 151 150 142
-0.122779 -0.084006 0.776280 150 149 141
-0.121594 -0.084081 0.776970 141 150 139
-0.120388 -0.084142 0.777536 138 147 136
-0.119094 -0.084142 0.777536 133 147 136
-0.117828 -0.084163 0.777725 130 144 133
-0.116599 -0.084211 0.778165 128 142 131
-0.115304 -0.084211 0.778165 127 141 130
-0.114008 -0.084211 0.778165 124 138 127
-0.112804 -0.084279 0.778796 117 131 120
-0.111507 -0.084279 0.778796 109 123 112
-0.286210 -0.080693 0.757316 93 82 74
-0.284949 -0.080693 0.757316 91 82 71
-0.281388 -0.080757 0.757914 81 81 69
-0.280126 -0.080757 0.757914 83 77 70
-0.278930 -0.080776 0.758093 82 76 69
-0.238541 -0.081205 0.762121 107 117 102
-0.237154 -0.081165 0.761740 104 114 99
-0.235872 -0.081160 0.761698 97 113 96
-0.234695 -0.081192 0.761994 97 113 96
-0.233465 -0.081205 0.762121 92 115 98
-0.232197 -0.081205 0.762121 92 115 98
-0.230928 -0.081205 0.762121 92 116 100
-0.229714 -0.081225 0.762302 93 117 101
-0.228444 -0.081225 0.762302 89 122 102
-0.227302 -0.081270 0.762726 90 123 103
-0.225969 -0.081247 0.762514 94 124 105
-0.224749 -0.081265 0.762683 94 124 105
-0.223492 -0.081270 0.762726 98 124 107
-0.222222 -0.081270 0.762726 99 125 108
-0.220952 -0.081270 0.762726 103 129 112
-0.219683 -0.081270 0.762726 104 130 113
-0.218413 -0.081270 0.762726 103 133 114
-0.217143 -0.081270 0.762726 104 134 115
-0.215873 -0.081270 0.762726 110 134 117
-0.214603 -0.081270 0.762726 111 135 118
-0.213333 -0.081270 0.762726 112 138 121
-0.212063 -0.081270 0.762726 114 140 123
-0.210794 -0.081270 0.762726 116 140 124
-0.209524 -0.081270 0.762726 119 143 127
-0.208254 -0.081270 0.762726 122 145 129
-0.206984 -0.081270 0.762726 123 146 130
-0.205714 -0.081270 0.762726 128 146 132
-0.204444 -0.081270 0.762726 129 147 133
-0.203223 -0.081289 0.762907 131 151 135
-0.202065 -0.081334 0.763332 132 152 136
-0.200794 -0.081334 0.763332 135 153 138
-0.199523 -0.081334 0.763332 137 155 140
-0.198253 -0.081334 0.763332 140 155 141
-0.196982 -0.081334 0.763332 142 157 143
-0.195711 -0.081334 0.763332 145 159 145
-0.194440 -0.081334 0.763332 147 161 147
-0.193211 -0.081352 0.763495 148 162 148
-0.192051 -0.081399 0.763938 148 162 148
-0.190779 -0.081399 0.763938 149 163 149
-0.189507 -0.081399 0.763938 148 162 148
-0.188235 -0.081399 0.763938 150 162 149
-0.186963 -0.081399 0.763938 150 162 149
-0.185692 -0.081399 0.763938 150 162 149
-0.184420 -0.081399 0.763938 149 161 148
-0.183148 -0.081399 0.763938 152 155 145
-0.181876 -0.081399 0.763938 150 153 143
-0.180604 -0.081399 0.763938 149 152 142
-0.179332 -0.081399 0.763938 149 152 142
-0.178060 -0.081399 0.763938 148 151 141
-0.176789 -0.081399 0.763938 149 152 142
-0.175656 -0.081464 0.764546 149 152 142
-0.174383 -0.081464 0.764546 150 153 143
-0.173111 -0.081464 0.764546 150 153 143
-0.171933 -0.081509 0.764972 151 154 144
-0.170701 -0.081529 0.765155 155 156 146
-0.169427 -0.081529 0.765155 155 156 146
-0.168273 -0.081587 0.765703 157 158 148
-0.167012 -0.081594 0.765764 159 160 150
-0.165737 -0.081594 0.765764 162 161 152
-0.164462 -0.081594 0.765764 164 163 154
-0.163317 -0.081659 0.766375 169 163 156
-0.162041 -0.081659 0.766375 171 165 158
-0.160804 -0.081678 0.766558 173 166 159
-0.159617 -0.081724 0.766987 173 166 159
-0.158466 -0.081789 0.767599 173 167 160
-0.157189 -0.081789 0.767599 176 170 163
-0.155911 -0.081789 0.767599 178 172 165
-0.154633 -0.081789 0.767599 180 174 167
-0.153380 -0.081803 0.767728 179 173 166
-0.152198 -0.081855 0.768213 179 173 166
-0.151040 -0.081920 0.768827 179 173 166
-0.149760 -0.081920 0.768827 179 173 166
-0.148480 -0.081920 0.768827 180 174 167
-0.147200 -0.081920 0.768827 180 174 167
-0.145963 -0.081944 0.769055 180 174 167
-0.144773 -0.081995 0.769535 179 173 166
-0.143590 -0.082051 0.770060 179 173 166
-0.142422 -0.082117 0.770677 178 172 165
-0.141218 -0.082163 0.771110 175 168 161
-0.139968 -0.082183 0.771296 172 165 158
-0.138795 -0.082249 0.771915 167 164 156
-0.137610 -0.082309 0.772474 165 162 154
-0.136334 -0.082315 0.772536 164 158 151
-0.135048 -0.082315 0.772536 163 157 150
-0.133762 -0.082315 0.772536 159 158 149
-0.132545 -0.082358 0.772940 158 157 148
-0.131295 -0.082381 0.773157 155 154 145
-0.130017 -0.082387 0.773213 157 156 147
-0.128824 -0.082448 0.773780 159 156 148
-0.127639 -0.082514 0.774403 158 155 147
-0.126452 -0.082581 0.775028 158 157 148
-0.125252 -0.082641 0.775591 156 155 146
-0.124022 -0.082681 0.775973 153 153 141
-0.122800 -0.082728 0.776411 151 151 139
-0.121621 -0.082806 0.777140 143 153 138
-0.120388 -0.082848 0.777536 141 151 136
-0.119094 -0.082848 0.777536 136 151 134
-0.117848 -0.082882 0.777857 133 148 131
-0.116599 -0.082915 0.778165 132 144 131
-0.115304 -0.082915 0.778165 131 143 130
-0.114008 -0.082915 0.778165 126 140 126
-0.112797 -0.082977 0.778752 123 137 123
-0.111507 -0.082982 0.778796 118 132 119
-0.110211 -0.082982 0.778796 111 125 112
-0.236097 -0.079968 0.762423 91 107 90
-0.234921 -0.080000 0.762726 90 106 89
-0.233651 -0.080000 0.762726 86 109 92
-0.232381 -0.080000 0.762726 86 109 92
-0.231111 -0.080000 0.762726 87 111 95
-0.229841 -0.080000 0.762726 88 112 96
-0.228571 -0.080000 0.762726 83 116 96
-0.227302 -0.080000 0.762726 86 119 99
-0.226032 -0.080000 0.762726 89 119 100
-0.224762 -0.080000 0.762726 91 121 102
-0.223492 -0.080000 0.762726 95 121 104
-0.222222 -0.080000 0.762726 98 124 107
-0.221128 -0.080064 0.763332 101 127 110
-0.219770 -0.080032 0.763028 102 128 111
-0.218421 -0.080003 0.762756 100 130 111
-0.217229 -0.080032 0.763028 102 132 113
-0.215873 -0.080000 0.762726 107 131 114
-0.214603 -0.080000 0.762726 109 133 116
-0.213333 -0.080000 0.762726 110 136 119
-0.212215 -0.080057 0.763271 111 137 120
-0.210877 -0.080032 0.763028 114 138 122
-0.209665 -0.080054 0.763241 117 141 125
-0.208419 -0.080064 0.763332 120 143 127
-0.207025 -0.080016 0.762877 121 144 128
-0.205722 -0.080003 0.762756 126 144 130
-0.204607 -0.080064 0.763332 127 145 131
-0.203336 -0.080064 0.763332 127 147 131
-0.202081 -0.080070 0.763392 129 149 133
-0.200954 -0.080127 0.763938 132 150 135
-0.199611 -0.080099 0.763665 133 151 136
-0.198253 -0.080064 0.763332 133 148 134
-0.196982 -0.080064 0.763332 134 149 135
-0.195796 -0.080099 0.763665 138 152 138
-0.194517 -0.080095 0.763635 141 155 141
-0.193323 -0.080127 0.763938 144 158 144
-0.192051 -0.080127 0.763938 145 159 145
-0.190779 -0.080127 0.763938 147 161 147
-0.189507 -0.080127 0.763938 148 162 148
-0.188235 -0.080127 0.763938 148 160 147
-0.186963 -0.080127 0.763938 150 162 149
-0.185692 -0.080127 0.763938 150 162 149
-0.184420 -0.080127 0.763938 150 162 149
-0.183213 -0.080156 0.764212 153 156 146
-0.181876 -0.080127 0.763938 151 154 144
-0.180604 -0.080127 0.763938 150 153 143
-0.179382 -0.080149 0.764151 150 153 143
-0.178152 -0.080169 0.764333 148 151 141
-0.176866 -0.080162 0.764272 149 152 142
-0.175656 -0.080191 0.764546 148 151 141
-0.174383 -0.080191 0.764546 148 151 141
-0.173111 -0.080191 0.764546 148 151 141
-0.171933 -0.080236 0.764972 147 150 140
-0.170701 -0.080255 0.765155 150 151 141
-0.169427 -0.080255 0.765155 151 152 142
-0.168287 -0.080319 0.765764 153 154 144
-0.167145 -0.080383 0.766375 155 156 146
-0.165830 -0.080364 0.766192 158 157 148
-0.164534 -0.080354 0.766100 160 159 150
-0.163317 -0.080383 0.766375 165 159 152
-0.162041 -0.080383 0.766375 167 161 154
-0.160849 -0.080424 0.766773 171 164 157
-0.159706 -0.080492 0.767415 172 165 158
-0.158466 -0.080511 0.767599 172 166 159
-0.157189 -0.080511 0.767599 173 167 160
-0.155911 -0.080511 0.767599 175 169 162
-0.154633 -0.080511 0.767599 175 169 162
-0.153416 -0.080543 0.767906 177 171 164
-0.152198 -0.080576 0.768213 178 172 165
-0.151010 -0.080624 0.768674 178 172 165
-0.149760 -0.080640 0.768827 178 172 165
-0.148480 -0.080640 0.768827 178 172 165
-0.147200 -0.080640 0.768827 178 172 165
-0.145932 -0.080646 0.768889 179 173 166
-0.144756 -0.080705 0.769443 179 173 166
-0.143590 -0.080769 0.770060 179 173 166
-0.142422 -0.080834 0.770677 178 172 165
-0.141139 -0.080834 0.770677 177 170 163
-0.139968 -0.080899 0.771296 172 165 158
-0.138739 -0.080931 0.771605 167 164 156
-0.137560 -0.080993 0.772194 164 161 153
-0.136334 -0.081029 0.772536 165 159 152
-0.135048 -0.081029 0.772536 164 158 151
-0.133762 -0.081029 0.772536 159 158 149
-0.132556 -0.081078 0.773002 156 155 146
-0.131290 -0.081091 0.773126 155 154 145
-0.130008 -0.081094 0.773157 154 153 144
-0.128824 -0.081159 0.773780 157 154 146
-0.127639 -0.081225 0.774403 159 156 148
-0.126452 -0.081290 0.775028 157 156 147
-0.125257 -0.081353 0.775622 155 154 145
-0.124001 -0.081376 0.775841 154 154 142
-0.122779 -0.081422 0.776280 154 154 142
-0.121683 -0.081553 0.777536 145 155 140
-0.120388 -0.081553 0.777536 141 151 136
-0.119094 -0.081553 0.777536 135 150 133
-0.117895 -0.081619 0.778165 134 149 132
-0.116599 -0.081619 0.778165 133 145 132
-0.115304 -0.081619 0.778165 130 142 129
-0.114008 -0.081619 0.778165 126 140 126
-0.112799 -0.081682 0.778764 122 136 122
-0.111507 -0.081686 0.778796 120 134 121
-0.110211 -0.081686 0.778796 117 131 118
-0.109002 -0.081752 0.779428 117 129 119
-0.107705 -0.081752 0.779428 115 127 117
-0.106407 -0.081752 0.779428 106 117 110
-0.233651 -0.078730 0.762726 81 105 85
-0.232381 -0.078730 0.762726 82 106 86
-0.231111 -0.078730 0.762726 82 106 89
-0.229969 -0.078774 0.763150 85 109 92
-0.228715 -0.078780 0.763204 83 112 93
-0.227482 -0.078793 0.763332 85 114 95
-0.226211 -0.078793 0.763332 84 117 98
-0.224940 -0.078793 0.763332 86 119 100
-0.223670 -0.078793 0.763332 86 121 101
-0.222399 -0.078793 0.763332 90 125 105
-0.221128 -0.078793 0.763332 94 127 108
-0.219857 -0.078793 0.763332 95 128 109
-0.218586 -0.078793 0.763332 96 129 110
-0.217352 -0.078806 0.763459 97 130 111
-0.216044 -0.078793 0.763332 99 132 113
-0.214774 -0.078793 0.763332 101 134 115
-0.213562 -0.078815 0.763544 104 134 118
-0.212384 -0.078849 0.763878 107 137 121
-0.211078 -0.078837 0.763756 106 139 122
-0.209857 -0.078855 0.763938 109 142 125
-0.208580 -0.078853 0.763920 115 141 126
-0.207206 -0.078815 0.763544 116 142 127
-0.205992 -0.078837 0.763756 121 144 128
-0.204769 -0.078855 0.763938 122 145 129
-0.203498 -0.078855 0.763938 125 145 129
-0.202226 -0.078855 0.763938 126 146 130
-0.200954 -0.078855 0.763938 127 147 132
-0.199682 -0.078855 0.763938 127 147 132
-0.198410 -0.078855 0.763938 122 145 129
-0.197138 -0.078855 0.763938 124 147 131
-0.195877 -0.078860 0.763981 129 147 133
-0.194595 -0.078855 0.763938 133 151 137
-0.193420 -0.078895 0.764321 136 154 140
-0.192204 -0.078918 0.764546 137 155 141
-0.190931 -0.078918 0.764546 141 156 143
-0.189658 -0.078918 0.764546 142 157 144
-0.188385 -0.078918 0.764546 145 160 146
-0.187112 -0.078918 0.764546 147 162 148
-0.185839 -0.078918 0.764546 148 162 148
-0.184566 -0.078918 0.764546 149 163 149
-0.183294 -0.078918 0.764546 151 160 148
-0.182021 -0.078918 0.764546 149 158 146
-0.180748 -0.078918 0.764546 147 156 144
-0.179475 -0.078918 0.764546 147 156 144
-0.178232 -0.078931 0.764674 146 155 143
-0.177028 -0.078962 0.764972 146 155 143
-0.175796 -0.078981 0.765155 144 153 141
-0.174522 -0.078981 0.765155 142 151 139
-0.173248 -0.078981 0.765155 143 152 140
-0.171975 -0.078981 0.765155 142 151 139
-0.170701 -0.078981 0.765155 141 150 138
-0.169562 -0.079044 0.765764 142 151 139
-0.168287 -0.079044 0.765764 145 153 141
-0.167145 -0.079107 0.766375 146 154 142
-0.165869 -0.079107 0.766375 148 156 144
-0.164593 -0.079107 0.766375 151 159 147
-0.163317 -0.079107 0.766375 156 159 149
-0.162158 -0.079164 0.766926 158 161 151
-0.160894 -0.079170 0.766987 165 162 154
-0.159744 -0.079233 0.767599 165 162 154
-0.158466 -0.079233 0.767599 167 161 154
-0.157189 -0.079233 0.767599 169 163 156
-0.155911 -0.079233 0.767599 167 166 157
-0.154730 -0.079283 0.768084 169 168 159
-0.153477 -0.079297 0.768213 171 170 162
-0.152210 -0.079303 0.768274 172 171 163
-0.151040 -0.079360 0.768827 175 169 163
-0.149760 -0.079360 0.768827 176 170 164
-0.148480 -0.079360 0.768827 177 171 165
-0.147282 -0.079404 0.769258 176 170 164
-0.146037 -0.079424 0.769443 179 172 165
-0.144872 -0.079487 0.770060 178 171 164
-0.143590 -0.079487 0.770060 178 172 165
-0.142422 -0.079551 0.770677 178 172 165
-0.141252 -0.079615 0.771296 177 170 163
-0.139968 -0.079615 0.771296 174 167 160
-0.138684 -0.079615 0.771296 170 167 159
-0.137510 -0.079679 0.771915 166 163 155
-0.136334 -0.079743 0.772536 164 161 153
-0.135048 -0.079743 0.772536 162 159 151
-0.133762 -0.079743 0.772536 163 157 150
-0.132582 -0.079807 0.773157 161 155 148
-0.131295 -0.079807 0.773157 156 153 145
-0.130113 -0.079871 0.773780 155 152 144
-0.128875 -0.079903 0.774085 153 153 141
-0.127714 -0.079983 0.774859 155 155 143
-0.126487 -0.080023 0.775247 155 155 141
-0.125262 -0.080065 0.775653 155 155 141
-0.124071 -0.080129 0.776280 152 156 141
-0.122848 -0.080175 0.776719 150 154 139
-0.121683 -0.080259 0.777536 150 154 139
-0.120388 -0.080259 0.777536 146 150 135
-0.119181 -0.080317 0.778103 143 149 135
-0.117895 -0.080324 0.778165 142 148 134
-0.116645 -0.080356 0.778474 140 144 131
-0.115304 -0.080324 0.778165 136 140 127
-0.114054 -0.080356 0.778481 133 136 126
-0.112804 -0.080389 0.778796 130 133 123
-0.111507 -0.080389 0.778796 126 131 120
-0.110281 -0.080440 0.779295 124 129 118
-0.109002 -0.080454 0.779428 123 128 120
-0.107705 -0.080454 0.779428 121 126 118
-0.106413 -0.080459 0.779472 116 124 115
-0.105169 -0.080500 0.779870 114 122 113
-0.103889 -0.080514 0.780003 110 119 110
-0.231295 -0.077522 0.763332 83 107 90
-0.230194 -0.077579 0.763896 84 108 91
-0.228935 -0.077583 0.763938 82 111 92
-0.227663 -0.077583 0.763938 82 111 92
-0.226391 -0.077583 0.763938 80 113 94
-0.225103 -0.077578 0.763884 81 114 95
-0.223835 -0.077579 0.763896 84 119 99
-0.222576 -0.077583 0.763938 86 121 101
-0.221304 -0.077583 0.763938 91 124 105
-0.220032 -0.077583 0.763938 94 127 108
-0.218760 -0.077583 0.763938 94 127 108
-0.217488 -0.077583 0.763938 95 128 109
-0.216216 -0.077583 0.763938 96 129 110
-0.214944 -0.077583 0.763938 98 131 112
-0.213672 -0.077583 0.763938 101 131 115
-0.212401 -0.077583 0.763938 102 132 116
-0.211129 -0.077583 0.763938 102 135 118
-0.209857 -0.077583 0.763938 104 137 120
-0.208585 -0.077583 0.763938 111 137 122
-0.207313 -0.077583 0.763938 112 138 123
-0.206041 -0.077583 0.763938 115 138 122
-0.204769 -0.077583 0.763938 117 140 124
-0.203498 -0.077583 0.763938 122 142 126
-0.202226 -0.077583 0.763938 124 144 128
-0.200954 -0.077583 0.763938 124 144 129
-0.199682 -0.077583 0.763938 121 141 126
-0.198410 -0.077583 0.763938 118 141 125
-0.197138 -0.077583 0.763938 120 143 127
-0.196008 -0.077640 0.764491 125 143 129
-0.194749 -0.077645 0.764546 127 145 131
-0.193477 -0.077645 0.764546 129 147 133
-0.192204 -0.077645 0.764546 131 149 135
-0.190931 -0.077645 0.764546 136 151 138
-0.189658 -0.077645 0.764546 138 153 140
-0.188385 -0.077645 0.764546 141 156 142
-0.187233 -0.077695 0.765039 144 159 145
-0.185839 -0.077645 0.764546 145 159 145
-0.184566 -0.077645 0.764546 146 160 146
-0.183412 -0.077695 0.765039 150 159 147
-0.182021 -0.077645 0.764546 149 158 146
-0.180864 -0.077695 0.765039 149 158 146
-0.179604 -0.077701 0.765094 148 157 145
-0.178344 -0.077707 0.765155 147 156 144
-0.177070 -0.077707 0.765155 147 156 144
-0.175796 -0.077707 0.765155 146 155 143
-0.174522 -0.077707 0.765155 144 153 141
-0.173248 -0.077707 0.765155 144 153 141
-0.171975 -0.077707 0.765155 142 151 139
-0.170713 -0.077713 0.765210 142 151 139
-0.169562 -0.077769 0.765764 142 151 139
-0.168408 -0.077825 0.766314 142 150 138
-0.167145 -0.077831 0.766375 143 151 139
-0.165869 -0.077831 0.766375 145 153 141
-0.164593 -0.077831 0.766375 147 155 143
-0.163317 -0.077831 0.766375 152 155 145
-0.162158 -0.077887 0.766926 154 157 147
-0.160941 -0.077916 0.767213 160 157 149
-0.159744 -0.077955 0.767599 162 159 151
-0.158466 -0.077955 0.767599 165 159 152
-0.157189 -0.077955 0.767599 166 160 153
-0.155911 -0.077955 0.767599 163 162 153
-0.154670 -0.077974 0.767783 164 163 154
-0.153477 -0.078018 0.768213 166 165 157
-0.152309 -0.078074 0.768772 168 167 159
-0.151040 -0.078080 0.768827 173 167 161
-0.149760 -0.078080 0.768827 175 169 163
-0.148480 -0.078080 0.768827 176 170 164
-0.147314 -0.078141 0.769425 176 170 164
-0.146049 -0.078149 0.769505 176 169 162
-0.144872 -0.078205 0.770060 176 169 162
-0.143590 -0.078205 0.770060 177 171 164
-0.142453 -0.078285 0.770844 176 170 163
-0.141252 -0.078331 0.771296 176 169 162
-0.139968 -0.078331 0.771296 175 168 161
-0.138790 -0.078390 0.771884 172 169 161
-0.137600 -0.078445 0.772418 169 166 158
-0.136334 -0.078457 0.772536 167 164 156
-0.135048 -0.078457 0.772536 163 160 152
-0.133869 -0.078519 0.773151 163 157 150
-0.132582 -0.078520 0.773157 162 156 149
-0.131400 -0.078582 0.773773 157 154 146
-0.130113 -0.078583 0.773780 155 152 144
-0.128925 -0.078644 0.774385 152 152 140
-0.127742 -0.078710 0.775028 152 152 140
-0.126554 -0.078773 0.775653 153 153 139
-0.125362 -0.078836 0.776273 153 153 139
-0.124071 -0.078837 0.776280 149 153 138
-0.122875 -0.078899 0.776888 148 152 137
-0.121683 -0.078964 0.777536 148 152 137
-0.120388 -0.078964 0.777536 147 151 136
-0.119190 -0.079028 0.778165 145 151 137
-0.117990 -0.079092 0.778796 143 149 135
-0.116694 -0.079092 0.778796 141 145 132
-0.115397 -0.079092 0.778796 138 142 129
-0.114100 -0.079092 0.778796 135 138 128
-0.112878 -0.079144 0.779308 130 133 123
-0.111598 -0.079157 0.779428 127 132 121
-0.110356 -0.079197 0.779826 125 130 119
-0.109091 -0.079221 0.780060 124 129 121
-0.107792 -0.079221 0.780060 123 128 120
-0.106493 -0.079221 0.780060 120 128 119
-0.105195 -0.079221 0.780060 116 124 115
-0.103949 -0.079261 0.780459 113 122 113
-0.102681 -0.079285 0.780694 109 118 109
-0.228953 -0.076318 0.763999 87 111 94
-0.227681 -0.076318 0.763999 86 110 93
-0.226409 -0.076318 0.763999 78 111 91
-0.225137 -0.076318 0.763999 77 110 90
-0.223847 -0.076312 0.763938 79 116 94
-0.222588 -0.076316 0.763981 81 118 96
-0.221321 -0.076318 0.763999 83 122 100
-0.220049 -0.076318 0.763999 87 126 104
-0.218934 -0.076372 0.764546 88 127 105
-0.217661 -0.076372 0.764546 89 128 106
-0.216388 -0.076372 0.764546 93 128 108
-0.215115 -0.076372 0.764546 95 130 110
-0.213842 -0.076372 0.764546 95 130 110
-0.212570 -0.076372 0.764546 97 132 112
-0.211297 -0.076372 0.764546 97 132 114
-0.210024 -0.076372 0.764546 98 133 115
-0.208751 -0.076372 0.764546 103 133 117
-0.207404 -0.076345 0.764272 104 134 118
-0.206205 -0.076372 0.764546 110 136 119
-0.204786 -0.076318 0.763999 111 137 120
-0.203660 -0.076372 0.764546 115 139 123
-0.202387 -0.076372 0.764546 118 142 126
-0.201130 -0.076378 0.764607 119 142 126
-0.199857 -0.076378 0.764607 117 140 124
-0.198568 -0.076372 0.764546 118 138 125
-0.197311 -0.076378 0.764607 119 139 126
-0.196024 -0.076373 0.764552 121 141 128
-0.194835 -0.076406 0.764881 121 141 128
-0.193631 -0.076433 0.765155 121 144 130
-0.192357 -0.076433 0.765155 123 146 132
-0.191083 -0.076433 0.765155 129 147 133
-0.189809 -0.076433 0.765155 132 150 136
-0.188535 -0.076433 0.765155 135 155 140
-0.187261 -0.076433 0.765155 139 159 144
-0.185987 -0.076433 0.765155 140 158 143
-0.184713 -0.076433 0.765155 141 159 144
-0.183439 -0.076433 0.765155 145 157 144
-0.182166 -0.076433 0.765155 146 158 145
-0.180892 -0.076433 0.765155 147 159 146
-0.179618 -0.076433 0.765155 146 158 145
-0.178344 -0.076433 0.765155 144 158 144
-0.177070 -0.076433 0.765155 144 158 144
-0.175810 -0.076439 0.765216 144 158 144
-0.174661 -0.076494 0.765764 144 158 144
-0.173290 -0.076451 0.765338 144 156 143
-0.172112 -0.076494 0.765764 141 153 140
-0.170837 -0.076494 0.765764 139 151 139
-0.169569 -0.076497 0.765795 138 150 138
-0.168421 -0.076555 0.766375 138 152 139
-0.167145 -0.076555 0.766375 138 152 139
-0.165869 -0.076555 0.766375 141 150 139
-0.164593 -0.076555 0.766375 142 151 140
-0.163317 -0.076555 0.766375 146 154 143
-0.162171 -0.076616 0.766987 148 156 145
-0.161022 -0.076677 0.767599 153 156 147
-0.159744 -0.076677 0.767599 154 157 148
-0.158466 -0.076677 0.767599 158 157 148
-0.157189 -0.076677 0.767599 159 158 149
-0.156011 -0.076727 0.768096 161 158 151
-0.154756 -0.076739 0.768213 162 159 152
-0.153477 -0.076739 0.768213 163 160 153
-0.152320 -0.076800 0.768827 165 162 155
-0.151040 -0.076800 0.768827 168 165 158
-0.149760 -0.076800 0.768827 169 166 159
-0.148591 -0.076857 0.769400 170 167 160
-0.147318 -0.076861 0.769443 171 168 161
-0.146154 -0.076923 0.770060 174 167 160
-0.144872 -0.076923 0.770060 175 168 161
-0.143705 -0.076985 0.770677 175 169 162
-0.142536 -0.077047 0.771296 173 167 160
-0.141252 -0.077047 0.771296 176 169 162
-0.139979 -0.077053 0.771358 174 167 160
-0.138851 -0.077139 0.772225 174 167 160
-0.137621 -0.077170 0.772536 172 165 158
-0.136334 -0.077170 0.772536 169 163 156
-0.135124 -0.077214 0.772971 167 161 154
-0.133968 -0.077289 0.773724 162 159 151
-0.132689 -0.077295 0.773780 159 156 148
-0.131401 -0.077295 0.773780 158 156 145
-0.130144 -0.077313 0.773967 156 154 143
-0.129001 -0.077401 0.774840 154 154 140
-0.127752 -0.077426 0.775090 152 152 138
-0.126554 -0.077482 0.775653 152 152 136
-0.125363 -0.077544 0.776280 152 152 136
-0.124098 -0.077561 0.776449 150 152 135
