ply
format ascii 1.0
element vertex 1177
property float x
property float y
property float z
property uchar red
property uchar green
property uchar blue
end_header
0.056301 -1.245657 3.480283 137 146 150
0.063338 -1.245657 3.480283 130 139 143
0.070376 -1.245657 3.480283 130 139 143
0.077584 -1.248402 3.487953 131 140 144
0.084665 -1.248815 3.489107 134 145 148
0.092076 -1.253652 3.502622 135 146 149
0.099911 -1.263158 3.529181 133 144 147
0.108303 -1.277978 3.570588 127 138 141
0.118144 -1.306968 3.651583 126 137 140
-0.100534 -1.474499 4.143060 172 178 183
-0.086821 -1.389141 3.903221 171 177 182
-0.076506 -1.346498 3.783403 169 175 180
-0.067305 -1.316195 3.698257 168 174 179
-0.058830 -1.294266 3.636641 166 172 177
-0.050945 -1.280902 3.599091 164 170 175
-0.043263 -1.269040 3.565760 163 169 174
-0.035907 -1.263914 3.551356 161 167 172
-0.028571 -1.257143 3.532331 159 168 172
-0.021362 -1.253227 3.521327 157 166 170
-0.014194 -1.249058 3.509613 158 167 171
-0.007081 -1.246293 3.501846 160 169 173
0.000000 -1.244283 3.496199 165 174 180
0.007050 -1.240802 3.486416 168 177 183
0.014083 -1.239300 3.482197 173 182 188
0.021104 -1.238074 3.478752 171 180 186
0.028093 -1.236091 3.473179 165 174 180
0.035095 -1.235359 3.471122 156 165 171
0.042105 -1.235088 3.470361 146 155 161
0.049123 -1.235088 3.470361 140 149 155
0.056140 -1.235088 3.470361 134 143 149
0.063071 -1.233384 3.465573 131 140 146
0.070175 -1.235088 3.470361 132 141 147
0.077347 -1.237557 3.477300 134 143 149
0.084396 -1.237802 3.477988 136 145 151
0.091812 -1.242993 3.492572 135 144 150
0.099688 -1.253227 3.521328 134 143 149
0.107979 -1.266956 3.559905 128 137 143
0.117566 -1.293228 3.633723 126 137 142
-0.095118 -1.387134 3.919852 171 177 182
-0.084277 -1.340771 3.788837 170 176 181
-0.074906 -1.310861 3.704317 168 174 179
-0.066176 -1.286765 3.636223 167 173 178
-0.058175 -1.272583 3.596147 167 173 178
-0.050473 -1.261830 3.565760 164 170 175
-0.043046 -1.255521 3.547933 163 169 174
-0.035730 -1.250558 3.533909 162 168 173
-0.028438 -1.244168 3.515851 159 168 172
-0.021258 -1.240035 3.504173 160 169 173
-0.014131 -1.236449 3.494037 161 170 174
-0.007048 -1.233480 3.485649 163 172 176
0.000000 -1.231500 3.480053 168 177 183
0.007030 -1.230256 3.476536 168 177 183
0.014035 -1.228070 3.470361 166 175 181
0.021053 -1.228070 3.470361 161 170 176
0.028009 -1.225383 3.462767 154 163 169
0.035006 -1.225195 3.462237 146 155 161
0.042013 -1.225383 3.462767 139 148 154
0.049015 -1.225383 3.462767 135 144 150
0.056018 -1.225383 3.462767 133 142 148
0.063010 -1.225195 3.462237 134 143 149
0.070022 -1.225383 3.462767 138 147 153
0.077026 -1.225410 3.462842 139 148 154
0.084303 -1.229418 3.474170 137 146 152
0.091610 -1.233209 3.484881 135 144 150
0.099622 -1.245275 3.518979 134 143 149
0.107889 -1.258710 3.556945 130 139 145
0.118166 -1.292439 3.652257 130 141 146
-0.103060 -1.379413 3.920437 171 177 182
-0.092575 -1.342333 3.815053 169 175 180
-0.083058 -1.313827 3.734035 167 173 178
-0.074382 -1.294252 3.678400 167 173 178
-0.065939 -1.274813 3.623152 166 172 177
-0.057945 -1.260299 3.581902 166 172 177
-0.050314 -1.250674 3.554547 165 171 176
-0.042808 -1.241444 3.528314 164 170 175
-0.035532 -1.236509 3.514289 164 170 175
-0.028295 -1.230851 3.498208 164 170 175
-0.021162 -1.227378 3.488338 165 171 176
-0.014088 -1.225622 3.483347 163 172 176
-0.007032 -1.223494 3.477300 166 175 179
0.000000 -1.221053 3.470361 167 176 182
0.007002 -1.218381 3.462767 162 171 177
0.014004 -1.218381 3.462767 153 162 168
0.021007 -1.218381 3.462767 148 157 163
0.027948 -1.215721 3.455206 143 152 158
0.034934 -1.215721 3.455206 136 145 151
0.041921 -1.215721 3.455206 133 142 148
0.048908 -1.215721 3.455206 131 140 146
0.055895 -1.215721 3.455206 134 143 149
0.062911 -1.216278 3.456791 137 146 152
0.069947 -1.217076 3.459058 139 148 154
0.077029 -1.218461 3.462994 140 149 155
0.084211 -1.221053 3.470361 138 147 153
0.091610 -1.226162 3.484881 135 144 150
0.099467 -1.236235 3.513510 132 141 147
0.107889 -1.251517 3.556945 130 139 145
0.118363 -1.287192 3.658337 133 142 148
-0.111707 -1.380375 3.945850 170 176 181
-0.099522 -1.324402 3.785848 170 176 181
-0.089993 -1.297398 3.708657 167 173 178
-0.081246 -1.277784 3.652589 166 172 177
-0.072993 -1.262774 3.609681 166 172 177
-0.064923 -1.247971 3.567368 165 171 176
-0.057207 -1.237095 3.536278 164 170 175
-0.049783 -1.230359 3.517023 165 171 176
-0.042497 -1.225321 3.502621 165 171 176
-0.035254 -1.219786 3.486801 165 171 176
-0.028188 -1.219115 3.484881 166 172 177
-0.021064 -1.214701 3.472265 167 173 178
-0.014021 -1.212838 3.466939 166 175 179
-0.007002 -1.211379 3.462767 166 175 179
0.000000 -1.210055 3.458982 162 171 177
0.006987 -1.208734 3.455206 153 162 168
0.013974 -1.208734 3.455206 144 153 159
0.020961 -1.208734 3.455206 141 150 156
0.027926 -1.207811 3.452568 140 149 155
0.034934 -1.208734 3.455206 134 143 149
0.041921 -1.208734 3.455206 130 139 145
0.048908 -1.208734 3.455206 130 139 145
0.055895 -1.208734 3.455206 135 144 150
0.062882 -1.208734 3.455206 138 147 153
0.069945 -1.210055 3.458982 140 149 155
0.077032 -1.211511 3.463146 141 150 156
0.084211 -1.214035 3.470361 136 145 151
0.091610 -1.219115 3.484881 132 141 147
0.099467 -1.229130 3.513510 132 141 147
0.108096 -1.246707 3.563753 134 143 149
0.118601 -1.282374 3.665709 134 143 149
-0.125908 -1.443747 4.150994 176 182 187
-0.107092 -1.315707 3.782860 170 176 181
-0.097026 -1.283732 3.690926 168 174 179
-0.088053 -1.262096 3.628719 166 172 177
-0.079730 -1.246687 3.584418 164 170 175
-0.072007 -1.238524 3.560946 164 170 175
-0.064310 -1.229038 3.533672 164 170 175
-0.056782 -1.220805 3.510002 164 170 175
-0.049459 -1.215279 3.494114 164 170 175
-0.042291 -1.212335 3.485649 166 171 176
-0.035165 -1.209670 3.477988 168 173 178
-0.028087 -1.207733 3.472417 167 173 178
-0.021046 -1.206621 3.469219 166 172 177
-0.014004 -1.204376 3.462767 167 173 178
-0.007002 -1.204376 3.462767 166 172 177
0.000000 -1.202298 3.456791 156 165 171
0.006987 -1.201747 3.455206 145 154 160
0.013963 -1.200829 3.452568 137 146 152
0.020957 -1.201563 3.454679 137 146 152
0.027948 -1.201747 3.455206 136 145 151
0.034934 -1.201747 3.455206 133 142 148
0.041921 -1.201747 3.455206 133 142 148
0.048908 -1.201747 3.455206 133 142 148
0.055895 -1.201747 3.455206 134 143 149
0.062882 -1.201747 3.455206 138 147 153
0.069901 -1.202298 3.456791 140 149 155
0.077024 -1.204376 3.462767 137 146 152
0.084238 -1.207415 3.471503 134 143 149
0.091483 -1.210389 3.480053 132 141 147
0.099467 -1.222025 3.513510 132 141 147
0.108230 -1.241037 3.568173 135 144 150
0.119766 -1.287487 3.701724 137 148 153
-0.136997 -1.464154 4.234284 176 182 187
-0.115791 -1.320017 3.817445 172 178 183
-0.103944 -1.269605 3.671656 167 173 178
-0.094718 -1.245901 3.603106 166 172 177
-0.086352 -1.230520 3.558624 164 170 175
-0.078607 -1.221974 3.533909 163 169 174
-0.071190 -1.217353 3.520544 163 169 174
-0.063858 -1.213304 3.508834 163 169 174
-0.056456 -1.206748 3.489876 164 170 175
-0.049242 -1.202902 3.478752 164 170 175
-0.042105 -1.200000 3.470361 166 171 176
-0.035039 -1.198344 3.465573 167 172 177
-0.028009 -1.197374 3.462767 166 172 177
-0.020965 -1.195021 3.455961 166 172 177
-0.013974 -1.194760 3.455206 163 169 174
-0.006983 -1.194056 3.453170 161 167 172
0.000000 -1.193119 3.450460 149 158 164
0.006972 -1.192157 3.447679 139 148 154
0.013943 -1.192157 3.447679 132 141 147
0.020923 -1.192624 3.449031 130 139 145
0.027887 -1.192157 3.447679 129 138 144
0.034858 -1.192157 3.447679 130 139 145
0.041921 -1.194760 3.455206 133 142 148
0.048908 -1.194760 3.455206 135 144 150
0.055895 -1.194760 3.455206 136 145 151
0.062796 -1.193119 3.450460 138 147 153
0.069869 -1.194760 3.455206 136 145 151
0.077024 -1.197374 3.462767 134 143 149
0.084294 -1.201185 3.473789 133 142 148
0.091429 -1.202637 3.477988 131 140 146
0.099467 -1.214920 3.513510 130 139 145
0.108296 -1.234574 3.570347 135 144 150
0.120132 -1.283906 3.713016 139 150 155
-0.124793 -1.325922 3.857078 173 179 184
-0.112037 -1.269752 3.693682 170 176 181
-0.101957 -1.238052 3.601466 167 172 177
-0.093263 -1.219594 3.547774 167 172 177
-0.085352 -1.209158 3.517414 166 171 176
-0.078044 -1.206128 3.508601 163 168 173
-0.070828 -1.204073 3.502622 162 168 173
-0.063435 -1.198212 3.485572 163 169 174
-0.056196 -1.194161 3.473789 163 168 173
-0.049025 -1.190606 3.463449 165 170 175
-0.041979 -1.189409 3.459965 165 170 175
-0.034934 -1.187773 3.455206 164 169 174
-0.027941 -1.187514 3.454452 164 169 174
-0.020936 -1.186348 3.451062 163 168 173
-0.013943 -1.185185 3.447679 160 166 171
-0.006970 -1.184927 3.446927 154 160 165
0.000000 -1.185185 3.447679 140 149 155
0.006970 -1.184953 3.447002 133 142 148
0.013928 -1.183896 3.443927 128 137 143
0.020915 -1.185185 3.447679 125 134 140
0.027887 -1.185185 3.447679 126 135 141
0.034858 -1.185185 3.447679 129 138 144
0.041830 -1.185185 3.447679 132 143 149
0.048850 -1.186349 3.451063 135 146 152
0.055773 -1.185185 3.447679 136 147 152
0.062796 -1.186141 3.450460 135 146 151
0.069869 -1.187773 3.455206 133 144 149
0.077041 -1.190632 3.463525 131 142 147
0.084211 -1.192982 3.470361 130 141 146
0.091429 -1.195604 3.477988 129 140 145
0.099467 -1.207815 3.513510 129 140 145
0.107906 -1.222939 3.557504 135 146 151
0.120332 -1.278529 3.719213 140 151 156
-0.134967 -1.341735 3.926172 173 179 184
-0.120641 -1.274269 3.728754 170 176 181
-0.110497 -1.244935 3.642920 168 174 179
-0.101236 -1.222064 3.575993 167 172 177
-0.092795 -1.206335 3.529968 165 170 175
-0.085106 -1.198582 3.507279 164 169 174
-0.077704 -1.193819 3.493343 163 168 173
-0.070485 -1.191190 3.485649 162 168 173
-0.063283 -1.188310 3.477224 161 167 172
-0.056079 -1.184666 3.466560 164 169 174
-0.048908 -1.180786 3.455206 165 170 175
-0.041894 -1.180013 3.452944 164 169 174
-0.034858 -1.178213 3.447679 164 169 174
-0.027887 -1.178213 3.447679 163 168 173
-0.020915 -1.178213 3.447679 159 164 169
-0.013922 -1.176419 3.442429 155 161 166
-0.006964 -1.176906 3.443852 148 154 159
0.000000 -1.177444 3.445427 134 143 149
0.006961 -1.176343 3.442204 129 138 144
0.013918 -1.176036 3.441305 126 135 141
0.020915 -1.178213 3.447679 123 132 138
0.027844 -1.176419 3.442429 125 134 140
0.034858 -1.178213 3.447679 130 139 145
0.041833 -1.178290 3.447904 133 144 150
0.048802 -1.178213 3.447679 135 146 152
0.055773 -1.178213 3.447679 135 146 151
0.062815 -1.179524 3.451514 133 144 149
0.069901 -1.181328 3.456791 131 142 147
0.077029 -1.183447 3.462994 130 141 146
0.084238 -1.186355 3.471503 129 140 145
0.091469 -1.189094 3.479517 129 140 145
0.099487 -1.200951 3.514212 129 140 145
0.108303 -1.220217 3.570588 135 146 151
0.121393 -1.282218 3.752017 140 151 156
-0.149513 -1.395457 4.107682 174 180 185
-0.130596 -1.290601 3.799024 171 177 182
-0.118518 -1.244444 3.663157 168 173 178
-0.108733 -1.217805 3.584742 164 169 174
-0.100190 -1.202281 3.539046 163 168 173
-0.092188 -1.191357 3.506891 163 168 173
-0.084693 -1.185708 3.490261 163 168 173
-0.077507 -1.183750 3.484497 163 168 173
-0.070276 -1.180630 3.475314 162 167 172
-0.063144 -1.178689 3.469600 163 168 173
-0.056018 -1.176368 3.462767 164 169 174
-0.048908 -1.173799 3.455206 164 169 174
-0.041830 -1.171242 3.447679 164 169 174
-0.034858 -1.171242 3.447679 164 169 174
-0.027887 -1.171242 3.447679 162 167 172
-0.020881 -1.169331 3.442054 156 161 166
-0.013916 -1.168950 3.440931 149 154 159
-0.006957 -1.168696 3.440184 143 148 153
0.000000 -1.168696 3.440184 130 139 145
0.006957 -1.168823 3.440558 128 137 143
0.013936 -1.170604 3.445802 127 136 142
0.020915 -1.171242 3.447679 124 133 139
0.027887 -1.171242 3.447679 124 135 141
0.034858 -1.171242 3.447679 129 140 146
0.041917 -1.173671 3.454829 132 142 151
0.048908 -1.173799 3.455206 134 144 153
0.055895 -1.173799 3.455206 134 145 151
0.062903 -1.174184 3.456339 131 142 148
0.070022 -1.176368 3.462767 129 140 145
0.077193 -1.178947 3.470361 129 140 145
0.084396 -1.181539 3.477988 130 141 146
0.091701 -1.185055 3.488338 128 139 144
0.099766 -1.197194 3.524072 126 137 142
0.108303 -1.212997 3.570588 134 145 150
0.122269 -1.283824 3.779078 142 153 158
-0.141628 -1.313991 3.891037 172 178 183
-0.127180 -1.249357 3.699640 168 174 179
-0.116414 -1.215070 3.598108 166 171 176
-0.107481 -1.196623 3.543484 164 169 174
-0.099593 -1.188004 3.517961 163 168 173
-0.091934 -1.180994 3.497203 163 168 173
-0.084600 -1.177352 3.486416 163 168 173
-0.077363 -1.174505 3.477988 162 167 172
-0.070175 -1.171930 3.470361 162 167 172
-0.063020 -1.169365 3.462767 162 167 172
-0.055895 -1.166812 3.455206 161 166 171
-0.048812 -1.164524 3.448429 163 168 173
-0.041830 -1.164270 3.447679 164 169 174
-0.034858 -1.164270 3.447679 163 168 173
-0.027887 -1.164270 3.447679 160 165 170
-0.020915 -1.164270 3.447679 154 159 164
-0.013915 -1.161916 3.440707 146 151 156
-0.006957 -1.161739 3.440184 137 142 147
0.000000 -1.162801 3.443328 126 135 141
0.006962 -1.162674 3.442953 125 134 140
0.013943 -1.164270 3.447679 126 135 141
0.020915 -1.164270 3.447679 126 135 141
0.027887 -1.164270 3.447679 127 138 144
0.034858 -1.164270 3.447679 129 140 146
0.041921 -1.166812 3.455206 130 140 149
0.048908 -1.166812 3.455206 131 141 150
0.055895 -1.166812 3.455206 129 140 146
0.062882 -1.166812 3.455206 128 139 145
0.070022 -1.169365 3.462767 128 139 144
0.077193 -1.171930 3.470361 128 139 144
0.084488 -1.175798 3.481815 127 138 143
0.091812 -1.179431 3.492572 127 138 143
0.100067 -1.193657 3.534699 124 135 140
0.108967 -1.213167 3.592474 129 140 145
0.124912 -1.303769 3.860768 143 154 159
-0.148069 -1.293653 3.853887 171 177 182
-0.134627 -1.241556 3.698689 168 174 179
-0.123811 -1.208976 3.601630 165 171 176
-0.114706 -1.190070 3.545309 164 169 174
-0.106532 -1.178951 3.512183 164 169 174
-0.099135 -1.175455 3.501769 163 168 173
-0.091741 -1.171463 3.489876 162 167 172
-0.084581 -1.170044 3.485649 162 167 172
-0.077363 -1.167473 3.477988 162 167 172
-0.070175 -1.164912 3.470361 162 167 172
-0.063020 -1.162363 3.462767 161 166 171
-0.055895 -1.159825 3.455206 162 167 172
-0.048812 -1.157550 3.448429 162 167 172
-0.041830 -1.157298 3.447679 161 166 171
-0.034858 -1.157298 3.447679 161 166 171
-0.027887 -1.157298 3.447679 158 163 168
-0.020870 -1.154783 3.440184 153 158 163
-0.013913 -1.154783 3.440184 143 149 154
-0.006957 -1.154783 3.440184 133 139 144
0.000000 -1.156366 3.444902 123 132 138
0.006959 -1.155260 3.441605 124 133 139
0.013943 -1.157298 3.447679 124 135 141
0.020915 -1.157298 3.447679 126 137 143
0.027887 -1.157298 3.447679 129 140 146
0.034906 -1.158889 3.452417 129 140 146
0.041921 -1.159825 3.455206 129 139 148
0.048908 -1.159825 3.455206 127 137 146
0.055895 -1.159825 3.455206 125 135 144
0.062882 -1.159825 3.455206 126 136 145
0.070022 -1.162363 3.462767 124 135 141
0.077193 -1.164912 3.470361 124 135 141
0.084396 -1.167473 3.477988 125 136 142
0.091976 -1.174468 3.498828 124 135 141
0.100487 -1.191486 3.549525 126 137 142
0.110505 -1.222921 3.643172 128 139 144
0.129706 -1.345702 4.008946 136 147 150
-0.153798 -1.268834 3.802860 170 176 181
-0.139776 -1.213848 3.638061 166 172 177
-0.129935 -1.191067 3.569782 164 170 175
-0.121429 -1.178571 3.532331 162 168 173
-0.113677 -1.172291 3.513509 162 167 172
-0.106195 -1.168141 3.501072 161 166 171
-0.099093 -1.167883 3.500297 161 166 171
-0.091721 -1.164150 3.489107 162 167 172
-0.084565 -1.162765 3.484958 162 167 172
-0.077300 -1.159497 3.475162 162 167 172
-0.070175 -1.157895 3.470361 162 167 172
-0.063020 -1.155361 3.462767 162 167 172
-0.055895 -1.152838 3.455206 162 167 172
-0.048908 -1.152838 3.455206 161 166 171
-0.041897 -1.152159 3.453170 161 166 171
-0.034864 -1.150502 3.448204 159 164 169
-0.027887 -1.150327 3.447679 154 159 164
-0.020915 -1.150327 3.447679 146 151 156
-0.013919 -1.148300 3.441605 137 143 148
-0.006967 -1.149475 3.445126 130 136 141
0.000000 -1.150327 3.447679 123 132 138
0.006972 -1.150327 3.447679 122 131 137
0.013943 -1.150327 3.447679 123 134 140
0.020961 -1.152838 3.455206 127 138 144
0.027948 -1.152838 3.455206 129 140 146
0.034934 -1.152838 3.455206 129 140 146
0.042005 -1.155133 3.462085 127 137 146
0.049015 -1.155361 3.462767 125 135 144
0.056018 -1.155361 3.462767 123 133 142
0.063020 -1.155361 3.462767 123 133 142
0.070022 -1.155361 3.462767 124 135 141
0.077193 -1.157895 3.470361 125 136 142
0.084498 -1.161844 3.482198 124 135 141
0.092385 -1.172578 3.514368 125 136 142
0.101250 -1.193302 3.576480 125 136 141
0.112970 -1.242675 3.724458 133 144 149
0.138226 -1.425455 4.272272 138 149 152
-0.159306 -1.244102 3.751471 167 176 180
-0.146594 -1.202070 3.624729 164 170 175
-0.136476 -1.178002 3.552153 162 168 173
-0.128057 -1.166741 3.518196 162 168 173
-0.120373 -1.161242 3.501614 161 167 172
-0.113002 -1.158269 3.492649 160 166 171
-0.105911 -1.157962 3.491724 160 166 171
-0.098874 -1.158243 3.492572 161 166 171
-0.091529 -1.154675 3.481814 161 166 171
-0.084396 -1.153407 3.477988 163 168 173
-0.077193 -1.150877 3.470361 163 168 173
-0.070175 -1.150877 3.470361 163 168 173
-0.063020 -1.148359 3.462767 162 167 172
-0.055975 -1.147480 3.460117 162 167 172
-0.048908 -1.145852 3.455206 160 165 170
-0.041921 -1.145852 3.455206 158 163 168
-0.034881 -1.144103 3.449934 154 159 164
-0.027887 -1.143355 3.447679 146 152 157
-0.020915 -1.143355 3.447679 138 144 149
-0.013943 -1.143355 3.447679 130 139 143
-0.006972 -1.143355 3.447679 125 134 138
0.000000 -1.143355 3.447679 123 134 140
0.006976 -1.144028 3.449708 122 133 139
0.013963 -1.144977 3.452569 122 133 142
0.020961 -1.145852 3.455206 125 136 145
0.027948 -1.145852 3.455206 127 137 146
0.034941 -1.146077 3.455885 128 138 147
0.042013 -1.148359 3.462767 126 136 145
0.049031 -1.148736 3.463904 123 133 142
0.056132 -1.150701 3.469828 123 133 142
0.063170 -1.151104 3.471046 124 134 143
0.070208 -1.151408 3.471960 124 134 143
0.077356 -1.153305 3.477682 125 135 144
0.084731 -1.157988 3.491802 123 134 143
0.092650 -1.168820 3.524465 123 134 143
0.101932 -1.194058 3.600569 125 137 143
0.116825 -1.277290 3.851547 139 151 157
-0.164026 -1.215284 3.687055 165 174 178
-0.152588 -1.184377 3.593287 163 172 176
-0.143369 -1.168459 3.544992 161 167 172
-0.134946 -1.157696 3.512339 160 166 171
-0.127363 -1.153344 3.499136 161 167 172
-0.120115 -1.151689 3.494114 160 166 171
-0.112862 -1.149785 3.488338 160 166 171
-0.105727 -1.148899 3.485649 160 166 171
-0.098678 -1.148899 3.485649 161 166 171
-0.091429 -1.146374 3.477988 161 166 171
-0.084396 -1.146374 3.477988 163 168 173
-0.077193 -1.143860 3.470361 163 168 173
-0.070122 -1.142982 3.467699 163 168 173
-0.063013 -1.141232 3.462388 162 167 172
-0.055895 -1.138865 3.455206 160 165 170
-0.048908 -1.138865 3.455206 157 162 167
-0.041921 -1.138865 3.455206 154 159 164
-0.034908 -1.137995 3.452568 147 152 157
-0.027917 -1.137623 3.451438 140 146 151
-0.020915 -1.136383 3.447679 134 140 145
-0.013943 -1.136383 3.447679 127 136 140
-0.006972 -1.136383 3.447679 124 133 137
0.000000 -1.137623 3.451438 121 132 138
0.006987 -1.138865 3.455206 120 131 137
0.013974 -1.138865 3.455206 120 131 140
0.020961 -1.138865 3.455206 123 134 143
0.028000 -1.140982 3.461630 124 134 143
0.035011 -1.141357 3.462767 125 135 144
0.042064 -1.142732 3.466939 124 134 143
0.049123 -1.143860 3.470361 123 133 142
0.056196 -1.144990 3.473789 122 132 141
0.063318 -1.146752 3.479135 123 133 142
0.070353 -1.146752 3.479135 123 133 142
0.077533 -1.148899 3.485649 122 132 141
0.084956 -1.153983 3.501072 122 133 142
0.092909 -1.164936 3.534304 122 133 142
0.102989 -1.199082 3.637899 127 139 145
0.120892 -1.313689 3.985608 147 159 165
-0.189153 -1.276783 3.897549 166 175 179
-0.171762 -1.209802 3.693079 163 172 176
-0.160229 -1.179871 3.601712 162 171 175
-0.150981 -1.164708 3.555425 160 169 173
-0.142663 -1.155569 3.527528 160 166 171
-0.134812 -1.149446 3.508835 160 166 171
-0.127335 -1.146015 3.498363 160 166 171
-0.120354 -1.146903 3.501072 159 165 170
-0.113024 -1.144371 3.493343 160 165 170
-0.105776 -1.142379 3.487262 161 166 171
-0.098678 -1.141850 3.485649 161 166 171
-0.091529 -1.140594 3.481814 162 167 172
-0.084396 -1.139341 3.477988 163 168 173
-0.077193 -1.136842 3.470361 163 168 173
-0.070175 -1.136842 3.470361 163 168 173
-0.063107 -1.135920 3.467547 162 167 172
-0.056018 -1.134355 3.462767 159 164 169
-0.048986 -1.133685 3.460722 157 162 167
-0.041986 -1.133610 3.460495 156 162 167
-0.034934 -1.131878 3.455206 149 155 160
-0.027948 -1.131878 3.455206 139 148 152
-0.020961 -1.131878 3.455206 135 144 148
-0.013974 -1.131878 3.455206 128 139 144
-0.006987 -1.131878 3.455206 123 134 139
0.000000 -1.131878 3.455206 120 132 137
0.006987 -1.131878 3.455206 119 131 136
0.013989 -1.133115 3.458983 117 132 137
0.021007 -1.134355 3.462767 118 133 138
0.028009 -1.134355 3.462767 121 133 139
0.035011 -1.134355 3.462767 122 134 140
0.042105 -1.136842 3.470361 122 134 140
0.049215 -1.138965 3.476842 121 133 139
0.056264 -1.139341 3.477988 122 132 141
0.063436 -1.141850 3.485649 123 133 142
0.070485 -1.141850 3.485649 122 133 142
0.077716 -1.144548 3.493883 122 133 142
0.085371 -1.152512 3.518196 119 134 139
0.093567 -1.165992 3.559345 120 135 140
0.104678 -1.211273 3.697572 131 146 151
0.127348 -1.375359 4.198466 152 167 172
-0.191814 -1.235284 3.794288 163 172 176
-0.177445 -1.190360 3.656301 161 170 174
-0.167197 -1.170377 3.594921 159 168 172
-0.158341 -1.158768 3.559264 159 168 172
-0.150258 -1.151980 3.538413 158 167 171
-0.142317 -1.145653 3.518978 159 165 170
-0.134812 -1.142350 3.508835 159 165 170
-0.127434 -1.139823 3.501072 159 165 170
-0.120354 -1.139823 3.501072 158 164 169
-0.113024 -1.137307 3.493343 160 165 170
-0.105797 -1.135552 3.487953 161 166 171
-0.098678 -1.134802 3.485649 161 166 171
-0.091610 -1.134552 3.484881 161 166 171
-0.084396 -1.132308 3.477988 162 167 172
-0.077205 -1.129998 3.470893 162 167 172
-0.070175 -1.129825 3.470361 162 167 172
-0.063032 -1.127574 3.463449 162 167 172
-0.056018 -1.127352 3.462767 159 164 169
-0.049015 -1.127352 3.462767 156 161 166
-0.042013 -1.127352 3.462767 155 161 166
-0.035003 -1.127106 3.462009 149 155 160
-0.027953 -1.125112 3.455886 139 148 152
-0.020961 -1.124891 3.455206 135 144 148
-0.014001 -1.127106 3.462009 128 139 144
-0.007002 -1.127278 3.462539 124 135 140
0.000000 -1.127180 3.462237 120 132 137
0.007002 -1.127352 3.462767 120 132 137
0.014004 -1.127352 3.462767 117 132 137
0.021048 -1.129577 3.469600 117 132 137
0.028066 -1.129651 3.469828 119 131 137
0.035088 -1.129825 3.470361 120 132 138
0.042198 -1.132308 3.477988 121 133 139
0.049280 -1.133429 3.481432 120 132 138
0.056388 -1.134802 3.485649 122 132 141
0.063478 -1.135552 3.487954 123 133 142
0.070640 -1.137307 3.493343 122 133 142
0.077892 -1.140050 3.501769 122 133 142
0.085619 -1.148718 3.528394 120 135 140
0.093840 -1.162167 3.569702 122 137 142
0.106924 -1.229627 3.776912 134 149 154
0.136259 -1.462517 4.492255 154 169 174
-0.194043 -1.194113 3.690751 156 165 169
-0.182565 -1.168416 3.611329 151 160 164
-0.173320 -1.155469 3.571313 155 164 168
-0.165004 -1.147853 3.547774 155 164 168
-0.157463 -1.145183 3.539521 155 164 168
-0.149666 -1.140312 3.524464 156 165 169
-0.142232 -1.137854 3.516867 159 165 170
-0.134812 -1.135255 3.508835 159 165 170
-0.127575 -1.133998 3.504949 160 165 170
-0.120354 -1.132743 3.501072 161 166 171
-0.113024 -1.130243 3.493343 162 167 172
-0.105797 -1.128499 3.487953 161 166 171
-0.098678 -1.127753 3.485649 161 166 171
-0.091539 -1.126637 3.482197 161 166 171
-0.084396 -1.125275 3.477988 161 166 171
-0.077351 -1.125102 3.477453 161 166 171
-0.070175 -1.122807 3.470361 160 166 171
-0.063132 -1.122339 3.468915 159 165 170
-0.056018 -1.120350 3.462767 154 163 167
-0.049015 -1.120350 3.462767 150 159 163
-0.041988 -1.119688 3.460722 148 157 161
-0.034963 -1.118808 3.458000 143 152 156
-0.028009 -1.120350 3.462767 137 148 153
-0.020986 -1.119248 3.459360 132 143 148
-0.014002 -1.120129 3.462085 127 139 144
-0.007002 -1.120350 3.462767 124 136 141
0.000000 -1.120350 3.462767 119 134 138
0.007005 -1.120816 3.464207 118 133 137
0.014035 -1.122807 3.470361 118 133 137
0.021095 -1.125052 3.477300 117 132 136
0.028093 -1.123719 3.473179 115 132 135
0.035165 -1.125275 3.477988 116 133 136
0.042292 -1.127778 3.485725 117 132 137
0.049399 -1.129121 3.489877 118 133 138
0.056523 -1.130468 3.494038 121 132 141
0.063721 -1.132818 3.501304 122 133 142
0.070922 -1.134752 3.507280 120 134 142
0.078431 -1.140820 3.526035 121 135 143
0.086312 -1.150821 3.556945 120 137 141
0.095129 -1.170821 3.618763 122 139 143
0.109831 -1.255213 3.879601 133 150 154
-0.204691 -1.205401 3.749072 162 171 175
-0.191176 -1.169117 3.636222 154 163 167
-0.181529 -1.154527 3.590843 149 158 162
-0.172895 -1.145430 3.562549 153 162 166
-0.164653 -1.138255 3.540234 154 163 167
-0.157143 -1.135714 3.532331 154 163 167
-0.149736 -1.133715 3.526114 155 164 168
-0.142384 -1.131950 3.520622 158 164 169
-0.135090 -1.130491 3.516085 158 164 169
-0.127716 -1.128160 3.508835 160 165 170
-0.120381 -1.125913 3.501846 161 166 171
-0.113099 -1.123923 3.495658 161 166 171
-0.105846 -1.121965 3.489569 161 166 171
-0.098678 -1.120705 3.485649 161 166 171
-0.091630 -1.120705 3.485649 161 166 171
-0.084414 -1.118488 3.478752 161 166 171
-0.077363 -1.118242 3.477988 161 166 171
-0.070175 -1.115790 3.470361 158 164 169
-0.063061 -1.114079 3.465042 156 162 167
-0.056097 -1.114934 3.467699 152 161 165
-0.049026 -1.113591 3.463525 148 157 161
-0.042013 -1.113348 3.462767 145 154 158
-0.035011 -1.113348 3.462767 143 152 156
-0.028009 -1.113348 3.462767 137 148 153
-0.021007 -1.113348 3.462767 132 143 148
-0.014004 -1.113348 3.462767 127 139 144
-0.007005 -1.113860 3.464359 124 136 141
0.000000 -1.114079 3.465042 120 135 139
0.007018 -1.115863 3.470589 118 133 137
0.014050 -1.117014 3.474170 118 133 137
0.021111 -1.118906 3.480053 117 132 136
0.028194 -1.120705 3.485649 115 132 135
0.035259 -1.121223 3.487262 115 132 135
0.042387 -1.123253 3.493575 117 132 137
0.049558 -1.125664 3.501072 118 133 138
0.056671 -1.126337 3.503165 120 131 140
0.063871 -1.128385 3.509535 121 132 141
0.071111 -1.130667 3.516633 120 134 142
0.078835 -1.139530 3.544199 121 135 143
0.087104 -1.154134 3.589622 121 138 142
0.096520 -1.180511 3.671659 120 137 141
0.113240 -1.286088 4.000027 135 152 156
-0.243810 -1.375782 4.306080 172 181 185
-0.202176 -1.183104 3.703015 163 172 176
-0.189694 -1.152758 3.608035 155 164 168
-0.180567 -1.141181 3.571797 152 161 165
-0.172565 -1.136052 3.555745 152 161 165
-0.164930 -1.132997 3.546184 153 162 166
-0.157494 -1.131096 3.540234 154 163 167
-0.150000 -1.128572 3.532331 155 164 168
-0.142587 -1.126434 3.525642 157 163 168
-0.135382 -1.125807 3.523679 158 164 169
-0.128000 -1.123556 3.516632 160 165 170
-0.120634 -1.121189 3.509224 160 165 170
-0.113274 -1.118584 3.501072 160 165 170
-0.105960 -1.116115 3.493343 160 165 170
-0.098678 -1.113656 3.485649 160 165 170
-0.091630 -1.113656 3.485649 161 166 171
-0.084488 -1.112431 3.481814 160 166 171
-0.077363 -1.111209 3.477988 159 165 170
-0.070222 -1.109502 3.472645 155 164 168
-0.063158 -1.108772 3.470361 153 162 166
-0.056140 -1.108772 3.470361 149 158 162
-0.049123 -1.108772 3.470361 146 155 159
-0.042059 -1.107558 3.466560 145 156 159
-0.035038 -1.107194 3.465421 143 154 157
-0.028009 -1.106346 3.462767 137 149 154
-0.021018 -1.106951 3.464662 130 142 147
-0.014018 -1.107436 3.466180 125 140 144
-0.007012 -1.107922 3.467699 123 138 142
0.000000 -1.108772 3.470361 121 136 140
0.007026 -1.110111 3.474551 119 134 138
0.014081 -1.112431 3.481815 117 134 137
0.021169 -1.114884 3.489492 117 134 137
0.028234 -1.115253 3.490646 116 133 137
0.035320 -1.116115 3.493343 116 133 137
0.042483 -1.118708 3.501459 118 134 141
0.049667 -1.121064 3.508835 118 134 141
0.056826 -1.122309 3.512729 118 134 141
0.064114 -1.125557 3.522896 119 135 142
0.071572 -1.130843 3.539442 118 134 141
0.079413 -1.140666 3.570186 121 137 144
0.088023 -1.158969 3.627473 120 139 145
0.098299 -1.194707 3.739331 119 138 144
0.117957 -1.331233 4.166644 137 157 159
-0.317253 -1.717540 5.409994 175 184 188
-0.236193 -1.324370 4.171567 171 180 184
-0.201024 -1.168915 3.681907 164 173 177
-0.189694 -1.145463 3.608035 156 165 169
-0.180832 -1.135624 3.577044 153 162 166
-0.172934 -1.131277 3.563352 151 160 164
-0.165208 -1.127722 3.552154 151 160 164
-0.157848 -1.126457 3.548171 153 162 166
-0.150336 -1.123937 3.540234 154 163 167
-0.142886 -1.121654 3.533041 156 162 167
-0.135602 -1.120503 3.529416 158 164 169
-0.128142 -1.117686 3.520544 160 165 170
-0.120648 -1.114216 3.509613 159 164 169
-0.113397 -1.112711 3.504871 159 164 169
-0.106145 -1.110988 3.499446 160 165 170
-0.098831 -1.108317 3.491031 160 165 170
-0.091701 -1.107462 3.488338 160 165 170
-0.084581 -1.106608 3.485649 159 165 170
-0.077533 -1.106608 3.485649 157 163 168
-0.070362 -1.104686 3.479594 153 162 166
-0.063293 -1.104103 3.477759 151 160 164
-0.056227 -1.103448 3.475696 149 158 162
-0.049130 -1.101923 3.470893 145 154 158
-0.042105 -1.101754 3.470361 144 155 158
-0.035088 -1.101754 3.470361 142 153 156
-0.028070 -1.101754 3.470361 132 144 149
-0.021053 -1.101754 3.470361 126 138 143
-0.014035 -1.101754 3.470361 123 138 142
-0.007030 -1.103667 3.476384 122 137 141
0.000000 -1.104176 3.477988 121 136 140
0.007044 -1.105950 3.483577 120 135 139
0.014108 -1.107462 3.488338 118 135 138
0.021192 -1.109051 3.493343 117 134 137
0.028275 -1.109786 3.495659 117 134 138
0.035398 -1.111504 3.501072 116 133 137
0.042582 -1.114216 3.509613 118 134 141
0.049778 -1.116444 3.516632 118 134 141
0.057016 -1.118931 3.524464 118 134 141
0.064430 -1.123937 3.540234 120 136 143
0.072088 -1.131786 3.564957 121 137 144
0.080195 -1.144602 3.605324 124 140 147
0.089209 -1.167151 3.676352 121 140 146
0.099760 -1.204797 3.794929 119 138 144
0.119761 -1.343035 4.230358 136 156 158
-0.275517 -1.482094 4.698298 171 180 184
-0.223609 -1.245820 3.949300 167 176 180
-0.199912 -1.155047 3.661547 162 171 175
-0.189694 -1.138167 3.608035 158 167 171
-0.180722 -1.127702 3.574862 154 163 167
-0.172973 -1.124324 3.564154 152 161 165
-0.165393 -1.121798 3.556145 151 160 164
-0.157879 -1.119508 3.548887 151 160 164
-0.150336 -1.116779 3.540234 152 161 165
-0.143263 -1.117453 3.542373 155 161 166
-0.135711 -1.114261 3.532253 157 163 168
-0.128414 -1.112919 3.528000 158 163 168
-0.120916 -1.109580 3.517414 158 163 168
-0.113525 -1.106874 3.508835 158 163 168
-0.106195 -1.104425 3.501072 158 163 168
-0.098916 -1.102206 3.494037 157 163 168
-0.091832 -1.101987 3.493343 158 164 169
-0.084750 -1.101744 3.492572 154 163 167
-0.077533 -1.099559 3.485649 152 161 165
-0.070485 -1.099559 3.485649 151 160 164
-0.063422 -1.099317 3.484881 149 158 162
-0.056375 -1.099317 3.484881 145 156 159
-0.049241 -1.097360 3.478676 141 152 155
-0.042198 -1.097143 3.477988 140 151 154
-0.035165 -1.097143 3.477988 135 146 149
-0.028132 -1.097143 3.477988 125 140 144
-0.021099 -1.097143 3.477988 122 137 141
-0.014066 -1.097143 3.477988 121 136 140
-0.007047 -1.099317 3.484881 120 135 139
0.000000 -1.099559 3.485649 119 136 139
0.007049 -1.099584 3.485725 119 136 139
0.014128 -1.101987 3.493343 118 135 138
0.021238 -1.104400 3.500994 119 136 139
0.028377 -1.106702 3.508290 119 136 140
0.035477 -1.106874 3.508835 118 135 139
0.042675 -1.109555 3.517336 119 135 142
0.049889 -1.111804 3.524464 119 135 142
0.057258 -1.116529 3.539442 119 135 142
0.064646 -1.120539 3.552154 121 137 144
0.072595 -1.132486 3.590028 120 139 145
0.081143 -1.150761 3.647960 120 139 145
0.090417 -1.175418 3.726124 117 137 140
0.099902 -1.198819 3.800305 114 134 137
0.120866 -1.346794 4.269392 132 152 154
-0.265902 -1.329508 4.241785 165 174 178
-0.245801 -1.269971 4.051833 166 175 179
-0.229373 -1.225962 3.911422 164 173 177
-0.212171 -1.174521 3.747299 162 171 175
-0.198758 -1.141016 3.640405 160 169 173
-0.189392 -1.129069 3.602286 157 166 170
-0.181008 -1.122248 3.580525 155 164 168
-0.173324 -1.119386 3.571393 153 162 166
-0.165766 -1.117117 3.564154 151 160 164
-0.158206 -1.114632 3.556225 151 160 164
-0.150706 -1.112357 3.548967 151 160 164
-0.143507 -1.112182 3.548410 153 159 164
-0.136045 -1.109843 3.540947 156 162 167
-0.128586 -1.107266 3.532726 158 163 168
-0.121185 -1.104923 3.525249 158 163 168
-0.113795 -1.102394 3.517179 157 162 167
-0.106437 -1.099851 3.509068 157 162 167
-0.099135 -1.097564 3.501769 155 161 166
-0.092035 -1.097345 3.501072 154 160 165
-0.084787 -1.095164 3.494114 150 159 163
-0.077704 -1.094923 3.493343 150 159 163
-0.070640 -1.094923 3.493343 149 158 162
-0.063463 -1.092968 3.487108 147 156 160
-0.056400 -1.092752 3.486417 142 153 156
-0.049350 -1.092752 3.486417 138 149 152
-0.042294 -1.092583 3.485879 135 146 149
-0.035242 -1.092511 3.485649 129 140 143
-0.028194 -1.092511 3.485649 123 138 142
-0.021145 -1.092511 3.485649 122 137 141
-0.014100 -1.092728 3.486340 120 135 139
-0.007064 -1.094923 3.493343 120 135 139
0.000000 -1.094923 3.493343 120 137 140
0.007080 -1.097345 3.501072 120 137 140
0.014159 -1.097345 3.501072 120 137 140
0.021286 -1.099778 3.508835 120 137 140
0.028405 -1.100681 3.511716 120 137 141
0.035613 -1.104013 3.522346 118 135 139
0.042781 -1.105169 3.526035 120 136 143
0.050067 -1.108628 3.537069 120 136 143
0.057411 -1.112332 3.548887 119 135 142
0.065114 -1.121411 3.577854 121 137 144
0.073143 -1.133714 3.617108 120 139 145
0.081920 -1.154321 3.682853 119 138 144
0.091092 -1.176611 3.753968 116 136 139
0.100144 -1.194030 3.809544 112 132 135
0.121101 -1.340766 4.277703 133 153 155
-0.333313 -1.466576 4.709484 161 170 174
-0.291649 -1.321000 4.242008 157 166 170
-0.267173 -1.246805 4.003753 155 164 168
-0.252092 -1.213195 3.895824 156 165 169
-0.240421 -1.194348 3.835301 156 165 169
-0.229885 -1.180076 3.789474 157 166 170
-0.218971 -1.162812 3.734035 157 166 170
-0.208542 -1.146980 3.683194 160 169 173
-0.198302 -1.131053 3.632050 159 168 172
-0.189392 -1.121785 3.602286 156 167 170
-0.181118 -1.115689 3.582713 154 165 168
-0.173363 -1.112415 3.572200 152 161 165
-0.165822 -1.110285 3.565359 150 159 163
-0.158569 -1.109985 3.564395 150 159 163
-0.151113 -1.108163 3.558544 151 160 164
-0.143849 -1.107640 3.556865 152 158 163
-0.136405 -1.105602 3.550321 154 160 165
-0.128946 -1.103201 3.542611 156 161 166
-0.121510 -1.100737 3.534698 156 161 166
-0.114031 -1.097550 3.524464 153 159 164
-0.106688 -1.095330 3.517336 153 159 164
-0.099335 -1.092683 3.508835 150 159 163
-0.092097 -1.090990 3.503397 149 158 162
-0.085012 -1.090990 3.503397 148 157 161
-0.077876 -1.090265 3.501072 147 156 160
-0.070720 -1.089085 3.497281 145 156 159
-0.063618 -1.088580 3.495658 143 154 157
-0.056593 -1.089422 3.498363 140 151 154
-0.049489 -1.088748 3.496199 136 147 150
-0.042384 -1.087859 3.493343 130 142 145
-0.035320 -1.087859 3.493343 126 138 141
-0.028256 -1.087859 3.493343 121 136 138
-0.021192 -1.087859 3.493343 121 136 138
-0.014137 -1.088580 3.495658 119 136 139
-0.007069 -1.088580 3.495659 119 136 139
0.000000 -1.090265 3.501072 120 137 140
0.007080 -1.090338 3.501304 120 137 140
0.014180 -1.091836 3.506114 120 137 141
0.021300 -1.093410 3.511171 120 137 141
0.028477 -1.096354 3.520623 120 136 143
0.035698 -1.099485 3.530676 120 136 143
0.042870 -1.100319 3.533357 120 136 143
0.050281 -1.106173 3.552154 121 137 144
0.057684 -1.110410 3.565761 119 138 144
0.065440 -1.119746 3.595739 120 139 145
0.073477 -1.131547 3.633635 122 141 147
0.082326 -1.152560 3.701113 119 138 144
0.091680 -1.176555 3.778166 114 134 136
0.100313 -1.188329 3.815975 111 131 133
-0.335982 -1.389330 4.490590 149 158 162
-0.311183 -1.322527 4.274669 151 160 164
-0.284156 -1.242166 4.014928 149 158 162
-0.264527 -1.190372 3.847518 146 155 159
-0.253846 -1.176923 3.804049 145 154 158
-0.243288 -1.163222 3.759764 150 159 163
-0.233797 -1.153900 3.729635 152 161 165
-0.225062 -1.147814 3.709962 153 162 166
-0.215990 -1.139532 3.683194 156 165 169
-0.206809 -1.130064 3.652590 158 167 171
-0.197780 -1.120751 3.622489 158 167 171
-0.189392 -1.114500 3.602286 155 166 169
-0.181262 -1.109324 3.585554 153 164 167
-0.173736 -1.107567 3.579876 152 161 165
-0.166140 -1.105192 3.572200 151 160 164
-0.158755 -1.104070 3.568575 150 159 163
-0.151403 -1.103076 3.565359 150 159 163
-0.144031 -1.101834 3.561347 151 157 162
-0.136629 -1.100225 3.556145 153 159 164
-0.129220 -1.098374 3.550161 155 160 165
-0.121727 -1.095547 3.541025 154 159 164
-0.114286 -1.092857 3.532331 152 158 163
-0.106904 -1.090423 3.524464 151 157 162
-0.099545 -1.087879 3.516242 149 158 162
-0.092342 -1.086792 3.512729 149 158 162
-0.085154 -1.085708 3.509224 147 156 160
-0.078049 -1.085588 3.508835 145 154 158
-0.070898 -1.084746 3.506114 143 154 157
-0.063717 -1.083186 3.501072 141 152 155
-0.056637 -1.083186 3.501072 138 149 152
-0.049558 -1.083186 3.501072 136 147 150
-0.042478 -1.083186 3.501072 129 141 144
-0.035398 -1.083186 3.501072 125 137 140
-0.028319 -1.083186 3.501072 121 136 138
-0.021239 -1.083186 3.501072 120 135 137
-0.014159 -1.083186 3.501072 119 136 139
-0.007082 -1.083545 3.502234 119 136 139
0.000000 -1.085588 3.508835 120 137 140
0.007096 -1.085708 3.509224 121 138 141
0.014214 -1.087396 3.514680 121 138 142
0.021378 -1.090302 3.524072 121 138 142
0.028549 -1.092004 3.529574 121 137 144
0.035810 -1.095792 3.541819 120 136 143
0.043059 -1.098004 3.548967 120 136 143
0.050507 -1.103946 3.568173 121 137 144
0.058030 -1.109827 3.587180 120 139 145
0.065866 -1.119726 3.619176 120 139 145
0.074057 -1.133071 3.662311 121 140 146
0.083087 -1.155671 3.735359 118 137 143
0.092922 -1.184756 3.829366 118 138 140
0.107466 -1.264791 4.088055 124 144 146
-0.328693 -1.314772 4.277562 141 150 154
-0.304370 -1.250385 4.068081 138 147 151
-0.289891 -1.223986 3.982193 142 151 155
-0.276810 -1.202145 3.911135 141 150 154
-0.262719 -1.174510 3.821226 140 149 153
-0.252632 -1.163636 3.785848 141 150 154
-0.242712 -1.152880 3.750852 147 156 160
-0.233362 -1.144228 3.722704 150 159 163
-0.224567 -1.137804 3.701804 151 160 164
-0.215714 -1.130637 3.678485 154 163 167
-0.206690 -1.122030 3.650483 155 166 169
-0.198211 -1.115852 3.630384 155 166 169
-0.189733 -1.109211 3.608776 153 164 167
-0.181818 -1.105455 3.596555 152 163 166
-0.174150 -1.102948 3.588400 151 162 165
-0.166780 -1.102198 3.585961 148 159 162
-0.159276 -1.100453 3.580282 149 160 163
-0.151933 -1.099706 3.577853 149 160 163
-0.144470 -1.097968 3.572200 149 160 163
-0.136937 -1.095496 3.564154 150 161 164
-0.129540 -1.093894 3.558944 151 160 164
-0.122165 -1.092297 3.553749 151 160 164
-0.114518 -1.087924 3.539521 150 159 163
-0.107143 -1.085714 3.532331 149 158 162
-0.099711 -1.082573 3.522111 148 159 162
-0.092516 -1.081730 3.519370 147 158 161
-0.085333 -1.080889 3.516632 147 158 161
-0.078207 -1.080673 3.515929 145 156 159
-0.071001 -1.079210 3.511170 141 152 155
-0.063858 -1.078492 3.508835 139 150 153
-0.056725 -1.077775 3.506502 136 148 151
-0.049667 -1.078492 3.508835 133 145 148
-0.042506 -1.076821 3.503397 129 141 144
-0.035398 -1.076106 3.501072 125 137 140
-0.028364 -1.077847 3.506735 119 136 139
-0.021286 -1.078492 3.508835 119 136 139
-0.014191 -1.078492 3.508835 119 136 139
-0.007095 -1.078492 3.508835 120 137 140
0.000000 -1.080385 3.514992 120 137 141
0.007123 -1.082645 3.522346 120 137 141
0.014265 -1.084141 3.527214 121 138 142
0.021459 -1.087243 3.537306 122 139 143
0.028700 -1.090583 3.548172 122 138 145
0.036012 -1.094756 3.561748 120 136 143
0.043331 -1.097721 3.571394 121 140 146
0.051072 -1.108983 3.608037 120 139 145
0.058973 -1.120479 3.645438 120 139 145
0.067119 -1.133562 3.688003 120 139 145
0.076753 -1.166651 3.795657 123 142 148
0.087921 -1.214908 3.952658 127 146 152
-0.317369 -1.261125 4.130196 143 152 156
-0.298688 -1.218971 3.992141 135 144 148
-0.287640 -1.206492 3.951271 138 147 151
-0.275862 -1.190148 3.897745 140 149 153
-0.263311 -1.169409 3.829826 140 149 153
-0.252360 -1.154738 3.781776 142 151 155
-0.242712 -1.145295 3.750852 148 157 161
-0.233450 -1.137128 3.724106 150 159 163
-0.224456 -1.129764 3.699987 152 161 165
-0.215714 -1.123198 3.678485 153 162 166
-0.206690 -1.114648 3.650483 153 164 167
-0.198211 -1.108511 3.630384 153 164 167
-0.190258 -1.104962 3.618761 151 162 165
-0.182345 -1.101361 3.606967 150 161 164
-0.174545 -1.098182 3.596555 150 161 164
-0.167273 -1.098182 3.596555 148 159 162
-0.159967 -1.097957 3.595820 148 159 162
-0.152346 -1.095443 3.587587 148 159 162
-0.144796 -1.093213 3.580282 148 159 162
-0.137243 -1.090720 3.572119 148 159 162
-0.129730 -1.088288 3.564154 150 159 163
-0.122275 -1.086087 3.556944 150 159 163
-0.114798 -1.083408 3.548171 150 159 163
-0.107383 -1.080984 3.540234 149 158 162
-0.099958 -1.078114 3.530833 148 159 162
-0.092650 -1.076169 3.524464 147 158 161
-0.085523 -1.076169 3.524464 147 158 161
-0.078222 -1.073778 3.516632 145 156 159
-0.071100 -1.073611 3.516085 142 153 156
-0.063858 -1.071397 3.508835 140 151 154
-0.056763 -1.071397 3.508835 136 148 151
-0.049667 -1.071397 3.508835 132 144 147
-0.042572 -1.071397 3.508835 129 141 144
-0.035477 -1.071397 3.508835 125 137 140
-0.028381 -1.071397 3.508835 120 137 140
-0.021286 -1.071397 3.508835 120 137 140
-0.014222 -1.073778 3.516632 120 137 140
-0.007111 -1.073778 3.516632 121 138 141
0.000000 -1.076169 3.524464 121 138 142
0.007143 -1.078572 3.532331 121 138 142
0.014316 -1.080864 3.539838 121 138 142
0.021563 -1.085355 3.554548 121 138 142
0.028859 -1.089442 3.567932 120 136 143
0.036273 -1.095443 3.587587 121 137 144
0.043655 -1.098657 3.598110 119 138 144
0.052051 -1.122808 3.677205 123 142 148
0.061216 -1.155456 3.784129 129 148 154
0.072559 -1.217376 3.986917 133 152 158
-0.367187 -1.412259 4.655995 153 164 167
-0.313766 -1.238550 4.083304 141 152 155
-0.294608 -1.194356 3.937605 134 145 148
-0.285573 -1.189886 3.922866 138 149 152
-0.275523 -1.180812 3.892951 142 153 156
-0.263317 -1.161693 3.829919 142 153 156
-0.252089 -1.145858 3.777714 141 152 155
-0.242660 -1.137468 3.750052 149 158 162
-0.233467 -1.129678 3.724369 151 160 164
-0.224614 -1.123070 3.702584 151 162 165
-0.215358 -1.113922 3.672425 151 162 165
-0.207168 -1.109827 3.658924 151 162 165
-0.198666 -1.103702 3.638731 151 162 165
-0.190708 -1.100236 3.627305 150 161 164
-0.182803 -1.096817 3.616033 149 160 163
-0.175306 -1.095665 3.612236 148 159 162
-0.167673 -1.093519 3.605159 148 159 162
-0.160364 -1.093394 3.604748 148 159 162
-0.152727 -1.090909 3.596555 149 160 163
-0.145223 -1.089176 3.590843 149 160 163
-0.137557 -1.085973 3.580281 148 159 162
-0.129905 -1.082544 3.568977 148 159 162
-0.122525 -1.081105 3.564235 148 159 162
-0.114986 -1.077997 3.553988 148 159 162
-0.107623 -1.076233 3.548171 148 159 162
-0.100022 -1.071668 3.533120 148 159 162
-0.092878 -1.071668 3.533120 148 159 162
-0.085714 -1.071429 3.532331 147 158 161
-0.078414 -1.069281 3.525249 146 157 160
-0.071269 -1.069042 3.524464 143 155 158
-0.064013 -1.066880 3.517336 141 153 156
-0.056889 -1.066667 3.516632 139 151 154
-0.049789 -1.066904 3.517414 135 147 150
-0.042667 -1.066667 3.516632 128 143 147
-0.035558 -1.066738 3.516867 124 139 143
-0.028456 -1.067117 3.518118 123 138 142
-0.021383 -1.069161 3.524857 122 137 141
-0.014286 -1.071429 3.532331 120 137 141
-0.007144 -1.071668 3.533120 120 137 141
0.000000 -1.074066 3.541026 121 138 142
0.007177 -1.076499 3.549047 121 138 142
0.014418 -1.081325 3.564957 121 138 142
0.021724 -1.086194 3.581011 120 137 141
0.029212 -1.095465 3.611577 115 134 140
0.036853 -1.105583 3.644934 117 136 142
0.045537 -1.138413 3.753170 121 140 146
0.058963 -1.263495 4.165544 139 158 164
-0.371760 -1.420312 4.713972 154 165 168
-0.317286 -1.244097 4.129118 141 152 155
-0.293986 -1.183890 3.929294 140 151 154
-0.284304 -1.176703 3.905440 141 152 155
-0.274510 -1.168627 3.878638 142 153 156
-0.263777 -1.155963 3.836604 139 150 153
-0.253025 -1.142446 3.791744 142 153 156
-0.243306 -1.132891 3.760031 150 159 163
-0.234399 -1.126627 3.739242 152 161 165
-0.225252 -1.118750 3.713096 152 163 166
-0.216403 -1.111862 3.690237 150 161 164
-0.207720 -1.105367 3.668679 149 160 163
-0.199124 -1.098871 3.647118 148 159 162
-0.191172 -1.095563 3.636140 147 158 161
-0.183486 -1.093578 3.629552 146 157 160
-0.175463 -1.089331 3.615455 147 158 161
-0.168152 -1.089331 3.615455 147 158 161
-0.160485 -1.086922 3.607460 148 159 162
-0.153075 -1.086105 3.604748 149 160 163
-0.145554 -1.084376 3.599010 149 160 163
-0.137847 -1.081007 3.587830 149 160 163
-0.130361 -1.079099 3.581497 148 159 162
-0.122633 -1.074842 3.567368 148 159 162
-0.115134 -1.072184 3.558544 148 159 162
-0.107865 -1.071461 3.556145 148 159 162
-0.100433 -1.068890 3.547614 148 159 162
-0.093127 -1.067383 3.542611 148 159 162
-0.085906 -1.066667 3.540234 146 157 160
-0.078624 -1.064999 3.534698 146 157 160
-0.071443 -1.064499 3.533041 145 157 160
-0.064185 -1.062625 3.526821 143 155 158
-0.057054 -1.062625 3.526821 140 152 155
-0.049922 -1.062625 3.526821 136 148 151
-0.042790 -1.062625 3.526821 131 146 150
-0.035675 -1.063123 3.528472 127 142 146
-0.028591 -1.064999 3.534698 123 138 142
-0.021491 -1.067383 3.542611 123 138 142
-0.014358 -1.069706 3.550321 121 138 142
-0.007188 -1.070955 3.554467 121 138 142
0.000000 -1.073366 3.562469 120 137 141
0.007218 -1.075497 3.569541 119 136 140
0.014516 -1.081425 3.589215 119 136 140
0.021928 -1.089082 3.614629 118 135 139
0.029691 -1.105983 3.670723 115 134 140
0.038673 -1.152444 3.824924 125 144 150
0.053008 -1.316369 4.368989 145 164 170
-0.381009 -1.445882 4.831263 155 166 169
-0.324483 -1.263776 4.222774 145 156 159
-0.298763 -1.195054 3.993146 140 151 154
-0.286247 -1.176792 3.932126 139 150 153
-0.275117 -1.163351 3.887213 139 150 153
-0.264014 -1.149235 3.840049 141 152 155
-0.253846 -1.138462 3.804049 143 154 157
-0.243897 -1.128022 3.769166 150 161 164
-0.234988 -1.121876 3.748631 152 163 166
-0.225670 -1.113305 3.719992 151 162 165
-0.216772 -1.106284 3.696530 149 160 163
-0.208130 -1.100116 3.675922 146 157 160
-0.199584 -1.094017 3.655543 145 156 159
-0.191793 -1.091747 3.647958 146 157 160
-0.183971 -1.089111 3.639150 145 156 159
-0.176349 -1.087486 3.633718 145 156 159
-0.168807 -1.086239 3.629552 147 158 161
-0.161301 -1.085119 3.625809 146 158 161
-0.153653 -1.082886 3.618348 147 159 162
-0.146052 -1.080785 3.611329 147 159 162
-0.138323 -1.077466 3.600238 147 159 162
-0.130686 -1.074532 3.590436 148 159 162
-0.123105 -1.071736 3.581092 148 159 162
-0.115576 -1.069075 3.572200 148 159 162
-0.108145 -1.067027 3.565359 149 160 163
-0.100674 -1.064270 3.556145 148 159 162
-0.093431 -1.063672 3.554148 147 158 161
-0.086205 -1.063194 3.552552 145 157 160
-0.079012 -1.063075 3.552154 144 156 159
-0.071693 -1.061051 3.545389 144 156 159
-0.064502 -1.060694 3.544198 142 154 157
-0.057335 -1.060694 3.544198 138 153 157
-0.050219 -1.061764 3.547774 136 151 155
-0.043064 -1.062241 3.549365 134 149 153
-0.035903 -1.062717 3.550958 129 144 148
-0.028796 -1.065467 3.560145 123 140 143
-0.021609 -1.066066 3.562149 121 138 141
-0.014445 -1.068954 3.571797 121 138 142
-0.007232 -1.070283 3.576236 120 137 141
0.000000 -1.074410 3.590028 119 136 140
0.007283 -1.077833 3.601467 119 136 140
0.014637 -1.083133 3.619175 118 138 141
0.022135 -1.091999 3.648800 116 136 139
0.030426 -1.125744 3.761556 119 138 144
0.042764 -1.265804 4.229550 137 156 162
-0.393851 -1.484516 4.994098 155 166 169
-0.328249 -1.269807 4.271790 145 156 159
-0.299345 -1.189290 4.000920 139 150 153
-0.287203 -1.172745 3.945262 139 150 153
-0.276748 -1.162343 3.910266 139 150 153
-0.265580 -1.148241 3.862828 141 152 155
-0.255504 -1.138156 3.828900 142 153 156
-0.245076 -1.125817 3.787388 151 162 165
-0.235904 -1.118642 3.763251 154 165 168
-0.226688 -1.110770 3.736769 150 161 164
-0.218148 -1.105783 3.719992 149 160 163
-0.209199 -1.098296 3.694804 146 157 160
-0.200804 -1.093267 3.677887 143 154 157
-0.192552 -1.088662 3.662395 143 154 157
-0.184758 -1.086374 3.654699 143 154 157
-0.176959 -1.083871 3.646278 143 154 157
-0.169527 -1.083496 3.645018 146 157 160
-0.161765 -1.080882 3.636223 146 158 161
-0.154128 -1.078899 3.629552 146 158 161
-0.146524 -1.076948 3.622987 146 158 161
-0.138803 -1.073899 3.612731 146 158 161
-0.131162 -1.071160 3.603517 147 158 161
