ply
format ascii 1.0
element vertex 1195
property float x
property float y
property float z
property uchar red
property uchar green
property uchar blue
end_header
-0.092240 -0.349541 1.198964 146 154 164
-0.089552 -0.348529 1.195490 143 151 161
-0.086904 -0.347616 1.192361 145 150 161
-0.084249 -0.346622 1.188953 146 151 162
-0.081636 -0.345754 1.185973 147 153 161
-0.078983 -0.344652 1.182194 148 154 162
-0.076407 -0.343829 1.179371 153 158 166
-0.073831 -0.342959 1.176387 156 161 169
-0.071232 -0.341916 1.172808 161 166 173
-0.068629 -0.340778 1.168905 165 170 177
-0.066086 -0.339873 1.165802 166 172 180
-0.063537 -0.338866 1.162346 167 173 181
-0.061050 -0.338125 1.159805 169 175 183
-0.058565 -0.337335 1.157096 173 179 187
-0.056083 -0.336498 1.154223 177 183 191
-0.053619 -0.335701 1.151491 177 183 191
-0.051169 -0.334925 1.148829 179 185 192
-0.048745 -0.334252 1.146521 180 186 193
-0.046327 -0.333553 1.144122 182 187 194
-0.043931 -0.332948 1.142047 182 187 194
-0.041558 -0.332468 1.140399 183 188 195
-0.039193 -0.331988 1.138756 182 187 194
-0.036813 -0.331318 1.136455 183 188 193
-0.034441 -0.330631 1.134099 184 189 194
-0.032091 -0.330079 1.132206 185 190 195
-0.029743 -0.329461 1.130085 184 189 194
-0.027406 -0.328868 1.128053 182 187 192
-0.025078 -0.328299 1.126100 177 182 187
-0.022760 -0.327738 1.124177 170 176 178
-0.020449 -0.327180 1.122262 165 171 173
-0.018141 -0.326542 1.120075 160 166 168
-0.015843 -0.325923 1.117952 159 165 167
-0.013564 -0.325536 1.116625 157 163 165
-0.011285 -0.325013 1.114829 158 164 166
-0.009013 -0.324484 1.113016 159 164 169
-0.006749 -0.323937 1.111138 159 164 169
-0.004492 -0.323391 1.109266 161 163 171
-0.002243 -0.322958 1.107781 162 164 172
0.000000 -0.322463 1.106084 158 164 171
0.002236 -0.321990 1.104461 157 163 170
0.004465 -0.321451 1.102611 158 163 170
0.006686 -0.320929 1.100822 156 161 168
0.008904 -0.320554 1.099536 152 162 163
0.011113 -0.320067 1.097863 152 162 163
0.013321 -0.319696 1.096591 151 161 160
0.015518 -0.319224 1.094973 150 160 159
0.017717 -0.318915 1.093912 151 158 158
0.019909 -0.318540 1.092627 150 157 157
0.022089 -0.318078 1.091043 149 156 156
0.024259 -0.317567 1.089291 148 155 155
0.026437 -0.317246 1.088188 147 154 156
0.028611 -0.316919 1.087066 147 154 156
0.030763 -0.316418 1.085349 146 152 157
0.032922 -0.316049 1.084083 146 152 157
0.035066 -0.315595 1.082524 145 151 156
0.037209 -0.315185 1.081117 145 151 156
0.039347 -0.314776 1.079714 146 151 156
0.041473 -0.314325 1.078168 147 152 157
0.043606 -0.313961 1.076919 147 153 155
0.045742 -0.313661 1.075892 146 152 154
0.047875 -0.313363 1.074868 148 154 154
0.050000 -0.313043 1.073773 147 153 153
0.052093 -0.312555 1.072098 150 153 154
0.054201 -0.312195 1.070863 151 154 155
0.056288 -0.311752 1.069341 152 155 156
0.058378 -0.311351 1.067969 153 156 157
0.060463 -0.310952 1.066599 156 157 159
0.062530 -0.310493 1.065026 157 158 160
0.064603 -0.310094 1.063657 157 160 163
0.066662 -0.309657 1.062155 158 161 164
0.068718 -0.309231 1.060694 161 162 166
0.070777 -0.308847 1.059379 163 164 168
0.072859 -0.308578 1.058457 164 165 169
0.074881 -0.308083 1.056759 166 167 171
0.076949 -0.307795 1.055770 168 169 173
0.079012 -0.307507 1.054784 169 170 174
0.081067 -0.307200 1.053729 171 170 174
0.083084 -0.306773 1.052263 173 172 176
0.085118 -0.306426 1.051073 174 173 177
0.087118 -0.305976 1.049531 175 174 178
0.089175 -0.305743 1.048730 176 175 179
0.091192 -0.305388 1.047514 176 175 179
0.093227 -0.305105 1.046543 176 175 179
0.095225 -0.304720 1.045221 177 176 180
0.097219 -0.304339 1.043916 177 178 182
0.099208 -0.303958 1.042608 176 177 181
0.101192 -0.303577 1.041303 176 177 181
0.103205 -0.303298 1.040343 178 179 183
0.105200 -0.302977 1.039242 179 180 184
0.107150 -0.302541 1.037748 181 182 186
0.109151 -0.302263 1.036795 181 181 188
0.111140 -0.301966 1.035776 181 181 188
0.113045 -0.301452 1.034014 181 182 186
0.114964 -0.300997 1.032454 182 183 187
0.116887 -0.300567 1.030979 182 183 187
0.118789 -0.300098 1.029367 184 185 189
0.120763 -0.299824 1.028430 185 186 188
0.122716 -0.299511 1.027353 186 187 189
0.124619 -0.299085 1.025893 185 188 191
0.126499 -0.298620 1.024298 183 186 189
0.128373 -0.298156 1.022707 183 186 187
0.130241 -0.297694 1.021121 183 186 187
0.132103 -0.297233 1.019540 184 187 190
0.134039 -0.296947 1.018561 185 188 191
0.135899 -0.296506 1.017048 186 189 190
0.137745 -0.296049 1.015479 187 190 191
0.139586 -0.295593 1.013916 186 189 190
0.141421 -0.295139 1.012357 185 188 189
0.143250 -0.294686 1.010804 184 187 188
0.145083 -0.294253 1.009319 184 187 188
0.146986 -0.293971 1.008353 183 186 189
0.148885 -0.293690 1.007389 185 188 191
0.150703 -0.293260 1.005915 183 189 189
0.152575 -0.292943 1.004827 182 188 188
0.154403 -0.292553 1.003488 182 185 186
0.156197 -0.292108 1.001961 180 183 184
0.158085 -0.291849 1.001073 174 177 178
0.159868 -0.291406 0.999553 167 170 171
0.161749 -0.291148 0.998669 165 168 169
0.163626 -0.290891 0.997787 168 171 172
0.165448 -0.290542 0.996591 178 179 181
0.167265 -0.290195 0.995399 186 187 189
0.169057 -0.289811 0.994084 189 191 191
0.170886 -0.289502 0.993022 187 189 189
0.172745 -0.289247 0.992150 186 188 188
0.174600 -0.288993 0.991278 182 184 184
0.176441 -0.288722 0.990347 178 180 180
0.178189 -0.288306 0.988922 175 177 177
0.180000 -0.288000 0.987871 174 175 177
0.181803 -0.287689 0.986804 170 171 173
0.183713 -0.287551 0.986330 169 170 172
0.185548 -0.287300 0.985469 170 171 173
0.187322 -0.286962 0.984309 166 169 172
0.189090 -0.286621 0.983140 162 165 168
0.190839 -0.286259 0.981900 157 160 163
0.192616 -0.285945 0.980821 157 160 163
0.194316 -0.285525 0.979381 157 160 163
0.196099 -0.285235 0.978387 160 163 166
0.197812 -0.284849 0.977062 163 166 169
0.199617 -0.284603 0.976217 164 167 170
0.201481 -0.284444 0.975675 165 168 171
0.203218 -0.284111 0.974532 168 171 174
0.204953 -0.283781 0.973398 171 174 177
0.206807 -0.283622 0.972853 174 177 180
0.208482 -0.283221 0.971477 174 176 182
0.210319 -0.283047 0.970881 172 174 180
0.212168 -0.282890 0.970344 171 173 179
0.213988 -0.282699 0.969689 169 171 177
0.215951 -0.282699 0.969689 168 170 176
0.217771 -0.282514 0.969053 168 170 176
0.219608 -0.282353 0.968501 168 171 174
0.221483 -0.282244 0.968127 167 170 173
0.223256 -0.282007 0.967316 167 169 175
0.225147 -0.281923 0.967026 167 169 175
0.227020 -0.281818 0.966665 165 170 175
0.228830 -0.281637 0.966045 165 170 175
0.230539 -0.281336 0.965012 165 170 175
0.232436 -0.281267 0.964777 165 170 175
0.234289 -0.281147 0.964365 161 167 174
0.236242 -0.281147 0.964365 156 162 169
0.238194 -0.281147 0.964365 144 156 161
0.240146 -0.281147 0.964365 138 150 155
0.242099 -0.281147 0.964365 132 144 150
0.244051 -0.281147 0.964365 129 141 147
0.246004 -0.281147 0.964365 121 136 141
0.247828 -0.281001 0.963865 116 131 136
0.249756 -0.280976 0.963777 110 127 131
0.251554 -0.280804 0.963189 101 118 122
0.253363 -0.280649 0.962655 88 107 113
0.255283 -0.280616 0.962544 81 100 106
0.257091 -0.280463 0.962017 76 95 103
0.258881 -0.280292 0.961432 73 92 100
0.260986 -0.280463 0.962017 74 93 101
0.262855 -0.280379 0.961730 76 95 103
0.264881 -0.280463 0.962017 83 99 106
0.266829 -0.280463 0.962017 87 103 110
0.268777 -0.280463 0.962017 91 107 116
0.270855 -0.280597 0.962480 96 112 121
0.272838 -0.280633 0.962603 99 115 124
0.274787 -0.280633 0.962603 98 114 123
0.276736 -0.280633 0.962603 98 114 123
0.278684 -0.280633 0.962603 98 114 123
0.280669 -0.280669 0.962726 98 114 123
0.282582 -0.280633 0.962603 100 116 125
0.284536 -0.280638 0.962620 101 117 126
0.286654 -0.280804 0.963189 101 117 126
0.288781 -0.280976 0.963777 98 117 125
0.290732 -0.280976 0.963777 96 115 123
0.292736 -0.281027 0.963953 94 113 121
0.294701 -0.281039 0.963994 88 107 115
0.296766 -0.281147 0.964365 83 102 110
0.298901 -0.281319 0.964953 86 105 113
0.300948 -0.281406 0.965254 95 111 120
0.302993 -0.281491 0.965543 94 110 119
0.305134 -0.281663 0.966133 103 114 125
0.307119 -0.281688 0.966222 116 127 138
0.309222 -0.281823 0.966683 142 152 163
0.311250 -0.281887 0.966901 170 180 191
0.313341 -0.282007 0.967316 177 187 198
0.315371 -0.282071 0.967535 180 190 201
0.317579 -0.282292 0.968293 178 186 196
0.319661 -0.282400 0.968661 173 181 191
0.321866 -0.282614 0.969398 169 174 181
0.323968 -0.282736 0.969814 167 172 179
0.326276 -0.283035 0.970839 166 168 174
0.328256 -0.283047 0.970881 158 160 166
0.330410 -0.283208 0.971436 147 149 155
0.332595 -0.283395 0.972075 133 135 141
0.334582 -0.283410 0.972129 117 122 127
0.336593 -0.283447 0.972254 104 109 114
0.338843 -0.283683 0.973062 97 103 108
0.341076 -0.283901 0.973812 93 99 104
0.343343 -0.284146 0.974652 89 100 103
0.345679 -0.284444 0.975675 86 97 100
0.348170 -0.284866 0.977123 76 97 99
0.350886 -0.285466 0.979181 72 93 95
0.354097 -0.286460 0.982590 66 92 92
0.358897 -0.288722 0.990347 62 88 88
0.365248 -0.292199 1.002273 63 84 87
0.374672 -0.298081 1.022451 67 88 91
0.430054 -0.340263 1.167137 86 107 110
-0.125323 -0.381301 1.317050 150 162 167
-0.116811 -0.363131 1.254290 144 159 164
-0.112584 -0.357766 1.235756 144 159 164
-0.108860 -0.353796 1.222045 153 165 171
-0.105744 -0.351662 1.214673 159 171 177
-0.102843 -0.350155 1.209468 163 172 179
-0.100118 -0.349193 1.206146 159 168 175
-0.097357 -0.348051 1.202201 153 161 171
-0.094642 -0.347022 1.198645 146 154 164
-0.092034 -0.346339 1.196287 141 149 159
-0.089369 -0.345398 1.193036 141 149 159
-0.086760 -0.344630 1.190385 145 150 161
-0.084122 -0.343698 1.187167 147 152 163
-0.081519 -0.342861 1.184276 149 155 163
-0.078880 -0.341811 1.180649 152 158 166
-0.076313 -0.341022 1.177921 157 162 170
-0.073711 -0.340021 1.174464 162 167 175
-0.071135 -0.339076 1.171201 167 172 179
-0.068528 -0.337912 1.167179 168 173 180
-0.065979 -0.336966 1.163913 166 172 180
-0.063445 -0.336026 1.160665 169 175 183
-0.060977 -0.335373 1.158411 173 179 187
-0.058505 -0.334650 1.155912 177 183 191
-0.056032 -0.333856 1.153171 177 183 191
-0.053556 -0.332982 1.150150 177 183 191
-0.051096 -0.332124 1.147187 179 185 192
-0.048690 -0.331558 1.145233 180 186 193
-0.046286 -0.330947 1.143121 182 187 194
-0.043910 -0.330481 1.141511 182 187 194
-0.041514 -0.329802 1.139167 183 188 195
-0.039140 -0.329232 1.137200 183 188 195
-0.036770 -0.328629 1.135117 185 190 195
-0.034407 -0.328017 1.133001 185 190 195
-0.032066 -0.327536 1.131339 184 189 194
-0.029709 -0.326799 1.128794 182 187 192
-0.027390 -0.326403 1.127425 177 182 187
-0.025054 -0.325705 1.125018 168 173 178
-0.022735 -0.325104 1.122940 161 167 169
-0.020431 -0.324631 1.121306 157 163 165
-0.018130 -0.324079 1.119401 156 162 164
-0.015843 -0.323644 1.117896 156 162 164
-0.013556 -0.323095 1.116002 159 165 167
-0.011278 -0.322549 1.114114 160 166 168
-0.009007 -0.322004 1.112232 161 166 171
-0.006744 -0.321461 1.110357 160 165 170
-0.004488 -0.320920 1.108488 162 164 172
-0.002241 -0.320448 1.106858 160 162 170
0.000000 -0.320067 1.105542 155 161 168
0.002235 -0.319553 1.103767 156 162 169
0.004465 -0.319219 1.102611 156 161 168
0.006686 -0.318685 1.100769 155 160 167
0.008900 -0.318187 1.099046 151 161 162
0.011113 -0.317844 1.097863 151 161 162
0.013315 -0.317337 1.096112 150 160 159
0.015518 -0.317007 1.094973 148 158 157
0.017717 -0.316700 1.093912 149 156 156
0.019899 -0.316175 1.092098 148 155 155
0.022078 -0.315717 1.090516 147 154 154
0.024257 -0.315347 1.089238 146 153 153
0.026437 -0.315043 1.088188 145 152 154
0.028611 -0.314718 1.087066 145 152 154
0.030763 -0.314221 1.085349 144 150 155
0.032906 -0.313704 1.083563 144 150 155
0.035066 -0.313403 1.082524 144 150 155
0.037209 -0.312996 1.081117 144 150 155
0.039346 -0.312579 1.079677 146 151 156
0.041473 -0.312142 1.078168 146 151 156
0.043606 -0.311780 1.076919 146 152 154
0.045742 -0.311483 1.075892 146 152 154
0.047875 -0.311187 1.074868 147 153 153
0.049985 -0.310775 1.073445 147 153 153
0.052093 -0.310385 1.072098 150 153 154
0.054188 -0.309954 1.070609 151 154 155
0.056288 -0.309587 1.069341 152 155 156
0.058378 -0.309189 1.067969 153 156 157
0.060463 -0.308793 1.066599 156 157 159
0.062521 -0.308293 1.064875 158 159 161
0.064588 -0.307868 1.063406 158 161 164
0.066660 -0.307496 1.062120 160 163 166
0.068702 -0.307011 1.060445 163 164 168
0.070777 -0.306702 1.059379 164 165 169
0.072825 -0.306292 1.057961 166 167 171
0.074881 -0.305944 1.056759 167 168 172
0.076949 -0.305658 1.055770 168 169 173
0.078960 -0.305168 1.054080 169 170 174
0.081018 -0.304884 1.053097 173 172 176
0.083073 -0.304600 1.052116 175 174 178
0.085106 -0.304255 1.050927 176 175 179
0.087118 -0.303851 1.049531 177 176 180
0.089154 -0.303549 1.048487 178 177 181
0.091132 -0.303066 1.046820 177 176 180
0.093165 -0.302786 1.045850 178 177 181
0.095194 -0.302505 1.044882 179 178 182
0.097219 -0.302226 1.043916 178 179 183
0.099208 -0.301847 1.042608 178 179 183
0.101192 -0.301469 1.041303 179 180 184
0.103182 -0.301122 1.040104 180 181 185
0.105146 -0.300716 1.038703 181 182 186
0.107150 -0.300440 1.037748 183 184 188
0.109079 -0.299967 1.036115 183 183 190
0.111075 -0.299692 1.035165 183 183 190
0.112993 -0.299222 1.033541 184 185 189
0.114905 -0.298753 1.031921 184 185 189
0.116811 -0.298286 1.030307 186 187 191
0.118750 -0.297917 1.029032 188 189 193
0.120684 -0.297549 1.027761 188 189 191
0.122653 -0.297278 1.026826 188 189 191
0.124562 -0.296873 1.025427 186 189 192
0.126425 -0.296373 1.023700 184 187 190
0.128331 -0.295990 1.022376 184 187 188
0.130233 -0.295607 1.021055 184 187 188
0.132103 -0.295169 1.019540 184 187 190
0.133960 -0.294712 1.017965 185 188 191
0.135899 -0.294447 1.017048 186 189 190
0.137745 -0.293993 1.015479 186 189 190
0.139586 -0.293540 1.013916 185 188 189
0.141421 -0.293089 1.012357 184 187 188
0.143223 -0.292583 1.010610 183 186 187
0.145083 -0.292209 1.009319 183 186 187
0.146939 -0.291837 1.008032 182 185 188
0.148799 -0.291484 1.006812 183 186 189
0.150703 -0.291224 1.005915 182 188 188
0.152507 -0.290780 1.004380 180 186 186
0.154403 -0.290521 1.003488 181 184 185
0.156197 -0.290079 1.001961 179 182 183
0.158085 -0.289822 1.001073 173 176 177
0.159904 -0.289446 0.999775 165 168 169
0.161749 -0.289126 0.998669 163 166 167
0.163626 -0.288871 0.997787 164 167 168
0.165448 -0.288525 0.996591 173 174 176
0.167265 -0.288179 0.995399 180 181 183
0.169131 -0.287926 0.994522 183 185 185
0.170924 -0.287555 0.993241 182 184 184
0.172805 -0.287338 0.992492 180 182 182
0.174600 -0.286987 0.991278 178 180 180
0.176441 -0.286717 0.990347 174 176 176
0.178189 -0.286304 0.988922 168 170 170
0.180017 -0.286027 0.987964 166 167 169
0.181875 -0.285803 0.987192 166 167 169
0.183742 -0.285598 0.986484 164 165 167
0.185600 -0.285385 0.985746 162 163 165
0.187379 -0.285056 0.984609 159 162 165
0.189149 -0.284719 0.983446 156 159 162
0.190914 -0.284383 0.982284 152 155 158
0.192645 -0.284003 0.980974 150 153 156
0.194378 -0.283633 0.979697 152 155 158
0.196125 -0.283291 0.978514 157 160 163
0.197873 -0.282958 0.977364 161 164 167
0.199685 -0.282722 0.976549 164 167 170
0.201481 -0.282469 0.975675 166 169 172
0.203218 -0.282138 0.974532 171 174 177
0.204970 -0.281834 0.973482 174 177 180
0.206788 -0.281626 0.972763 174 177 180
0.208540 -0.281332 0.971746 172 174 180
0.210352 -0.281124 0.971030 170 172 178
0.212226 -0.281003 0.970612 168 170 176
0.214034 -0.280797 0.969898 168 170 176
0.215951 -0.280736 0.969689 167 169 175
0.217774 -0.280555 0.969065 167 169 175
0.219608 -0.280392 0.968501 167 170 173
0.221569 -0.280392 0.968501 167 170 173
0.223351 -0.280169 0.967730 168 170 176
0.225214 -0.280049 0.967316 169 171 177
0.227027 -0.279869 0.966694 167 172 177
0.228851 -0.279707 0.966133 168 173 178
0.230673 -0.279544 0.965572 168 173 178
0.232528 -0.279425 0.965160 168 173 178
0.234432 -0.279365 0.964953 164 170 177
0.236386 -0.279365 0.964953 159 165 172
0.238339 -0.279365 0.964953 149 161 166
0.240293 -0.279365 0.964953 144 156 161
0.242224 -0.279339 0.964865 140 152 158
0.244200 -0.279365 0.964953 133 145 151
0.246154 -0.279365 0.964953 124 139 144
0.247994 -0.279237 0.964512 119 134 139
0.249764 -0.279033 0.963806 111 128 132
0.251684 -0.278999 0.963689 100 117 121
0.253504 -0.278854 0.963189 87 106 112
0.255298 -0.278684 0.962603 77 96 102
0.257208 -0.278642 0.962456 73 92 100
0.259038 -0.278515 0.962017 73 92 100
0.261065 -0.278600 0.962310 74 93 101
0.263014 -0.278600 0.962310 77 96 104
0.265043 -0.278684 0.962603 83 99 106
0.266991 -0.278684 0.962603 86 102 109
0.268940 -0.278684 0.962603 91 107 116
0.270889 -0.278684 0.962603 95 111 120
0.272838 -0.278684 0.962603 98 114 123
0.274787 -0.278684 0.962603 98 114 123
0.276778 -0.278727 0.962749 99 115 124
0.278761 -0.278761 0.962867 98 114 123
0.280719 -0.278769 0.962896 100 116 125
0.282729 -0.278829 0.963101 101 117 126
0.284704 -0.278854 0.963189 101 117 126
0.286786 -0.278982 0.963630 100 116 125
0.288781 -0.279024 0.963777 96 115 123
0.290847 -0.279135 0.964159 92 111 119
0.292861 -0.279195 0.964365 88 107 115
0.294823 -0.279203 0.964394 85 104 112
0.296902 -0.279322 0.964806 84 103 111
0.298901 -0.279365 0.964953 82 101 109
0.301038 -0.279536 0.965543 90 106 115
0.303151 -0.279681 0.966045 100 116 125
0.305134 -0.279707 0.966133 122 133 144
0.307137 -0.279749 0.966281 153 164 175
0.309235 -0.279878 0.966724 172 182 193
0.311383 -0.280049 0.967316 174 184 195
0.313505 -0.280195 0.967819 171 181 192
0.315599 -0.280315 0.968234 171 181 192
0.317696 -0.280435 0.968649 167 175 185
0.319804 -0.280564 0.969095 157 165 175
0.321963 -0.280736 0.969689 156 161 168
0.324125 -0.280909 0.970285 160 165 172
0.326390 -0.281167 0.971179 155 157 163
0.328457 -0.281254 0.971477 144 146 152
0.330516 -0.281332 0.971746 129 131 137
0.332657 -0.281479 0.972254 119 121 127
0.334769 -0.281600 0.972673 107 112 117
0.336749 -0.281609 0.972703 101 106 111
0.338968 -0.281817 0.973422 97 103 108
0.341296 -0.282112 0.974442 93 99 104
0.343418 -0.282234 0.974863 87 98 101
0.345679 -0.282469 0.975675 84 95 98
0.348106 -0.282836 0.976942 72 93 95
0.351256 -0.283783 0.980213 68 89 91
0.355245 -0.285394 0.985776 62 88 88
0.360717 -0.288170 0.995368 57 83 83
0.369409 -0.293475 1.013689 64 85 88
0.404515 -0.319589 1.103892 85 106 109
-0.133751 -0.395681 1.376343 153 165 170
-0.120237 -0.363270 1.263605 145 157 162
-0.115652 -0.357014 1.241843 145 157 163
-0.111836 -0.352905 1.227550 149 161 167
-0.108341 -0.349646 1.216215 154 165 170
-0.105517 -0.348453 1.212065 157 168 173
-0.102768 -0.347454 1.208590 158 167 174
-0.100037 -0.346471 1.205171 154 163 170
-0.097309 -0.345446 1.201607 149 157 167
-0.094540 -0.344224 1.197356 144 152 162
-0.091912 -0.343462 1.194704 141 149 159
-0.089190 -0.342298 1.190654 141 149 159
-0.086603 -0.341600 1.188229 147 152 163
-0.083996 -0.340783 1.185386 151 156 167
-0.081427 -0.340077 1.182929 155 161 169
-0.078794 -0.339054 1.179372 158 164 172
-0.076198 -0.338128 1.176151 161 167 175
-0.073602 -0.337144 1.172730 165 171 179
-0.071026 -0.336192 1.169415 167 173 181
-0.068428 -0.335061 1.165483 167 173 181
-0.065914 -0.334277 1.162757 166 175 182
-0.063407 -0.333473 1.159958 170 179 186
-0.060917 -0.332701 1.157274 172 181 188
-0.058429 -0.331875 1.154400 173 182 189
-0.055970 -0.331154 1.151893 174 183 189
-0.053514 -0.330389 1.149230 176 185 191
-0.051090 -0.329760 1.147045 180 186 191
-0.048657 -0.329015 1.144454 179 185 190
-0.046246 -0.328345 1.142122 180 186 193
-0.043865 -0.327833 1.140342 181 187 194
-0.041473 -0.327177 1.138059 183 188 193
-0.039111 -0.326695 1.136382 184 189 194
-0.036734 -0.326018 1.134026 184 190 192
-0.034391 -0.325571 1.132474 183 189 191
-0.032042 -0.324996 1.130473 180 186 188
-0.029689 -0.324293 1.128029 176 182 184
-0.027358 -0.323739 1.126100 168 174 176
-0.025032 -0.323138 1.124010 159 165 167
-0.022719 -0.322615 1.122190 155 160 165
-0.020424 -0.322247 1.120909 154 159 164
-0.018124 -0.321699 1.119004 157 163 165
-0.015832 -0.321153 1.117106 160 166 168
-0.013549 -0.320657 1.115380 163 168 173
-0.011271 -0.320088 1.113400 164 169 174
-0.009003 -0.319611 1.111740 163 168 173
-0.006742 -0.319135 1.110084 160 165 170
-0.004488 -0.318676 1.108488 158 163 170
-0.002240 -0.318140 1.106626 156 161 168
0.000000 -0.317762 1.105310 155 160 165
0.002234 -0.317296 1.103689 156 161 166
0.004462 -0.316799 1.101958 154 160 165
0.006685 -0.316435 1.100692 153 159 164
0.008900 -0.315948 1.099001 150 162 162
0.011113 -0.315621 1.097863 148 160 160
0.013315 -0.315118 1.096112 148 158 159
0.015518 -0.314790 1.094973 147 157 158
0.017717 -0.314485 1.093912 146 156 157
0.019899 -0.313964 1.092098 144 154 155
0.022089 -0.313661 1.091043 145 152 154
0.024257 -0.313142 1.089238 144 151 153
0.026437 -0.312840 1.088188 143 149 154
0.028611 -0.312517 1.087066 143 149 154
0.030763 -0.312024 1.085349 143 149 154
0.032922 -0.311660 1.084083 144 150 155
0.035067 -0.311218 1.082546 144 151 153
0.037213 -0.310839 1.081228 144 151 153
0.039347 -0.310404 1.079714 144 151 153
0.041479 -0.310003 1.078322 144 151 153
0.043612 -0.309644 1.077073 145 151 153
0.045742 -0.309305 1.075892 146 152 154
0.047875 -0.309011 1.074868 146 152 152
0.050000 -0.308696 1.073773 147 153 153
0.052093 -0.308214 1.072098 149 155 157
0.054201 -0.307859 1.070863 149 155 157
0.056288 -0.307422 1.069341 153 156 159
0.058365 -0.306954 1.067716 154 157 160
0.060460 -0.306619 1.066549 156 159 162
0.062525 -0.306156 1.064939 158 161 164
0.064603 -0.305787 1.063657 160 163 166
0.066662 -0.305356 1.062155 162 165 168
0.068702 -0.304864 1.060445 165 166 168
0.070735 -0.304374 1.058740 166 167 169
0.072825 -0.304150 1.057961 167 168 172
0.074881 -0.303804 1.056759 168 169 173
0.076949 -0.303520 1.055770 169 170 172
0.078960 -0.303034 1.054080 171 172 174
0.081018 -0.302752 1.053097 176 175 179
0.083073 -0.302470 1.052116 178 177 181
0.085079 -0.302029 1.050584 178 177 181
0.087112 -0.301706 1.049461 178 177 181
0.089134 -0.301356 1.048243 179 178 182
0.091132 -0.300947 1.046820 179 178 182
0.093165 -0.300668 1.045850 179 177 184
0.095194 -0.300390 1.044882 180 178 185
0.097155 -0.299914 1.043227 181 179 186
0.099176 -0.299637 1.042264 183 181 188
0.101186 -0.299341 1.041234 182 182 189
0.103144 -0.298906 1.039721 183 183 190
0.105146 -0.298613 1.038703 186 184 191
0.107087 -0.298163 1.037135 187 185 192
0.109079 -0.297870 1.036115 186 186 193
0.111075 -0.297596 1.035165 186 186 193
0.112957 -0.297034 1.033210 187 188 192
0.114889 -0.296623 1.031780 188 189 193
0.116811 -0.296200 1.030307 190 191 195
0.118750 -0.295833 1.029032 190 191 195
0.120679 -0.295454 1.027714 190 191 195
0.122614 -0.295105 1.026500 189 190 194
0.124538 -0.294740 1.025228 187 190 193
0.126417 -0.294281 1.023634 185 188 191
0.128290 -0.293825 1.022046 184 187 188
0.130233 -0.293540 1.021055 184 187 188
0.132103 -0.293105 1.019540 185 188 191
0.133960 -0.292652 1.017965 185 188 191
0.135892 -0.292375 1.017002 186 189 190
0.137714 -0.291871 1.015251 185 188 189
0.139529 -0.291370 1.013506 184 187 188
0.141330 -0.290853 1.011709 183 186 187
0.143223 -0.290537 1.010610 182 185 186
0.145074 -0.290147 1.009255 180 183 184
0.146939 -0.289796 1.008032 181 184 185
0.148790 -0.289427 1.006747 182 185 186
0.150636 -0.289059 1.005467 180 186 186
0.152486 -0.288708 1.004246 179 185 185
0.154315 -0.288325 1.002915 180 183 184
0.156197 -0.288051 1.001961 178 181 182
0.158015 -0.287668 1.000629 172 175 176
0.159868 -0.287358 0.999553 163 166 167
0.161699 -0.287015 0.998360 161 164 165
0.163526 -0.286675 0.997176 159 162 163
0.165411 -0.286444 0.996371 166 167 169
0.167265 -0.286164 0.995399 174 175 177
0.169131 -0.285912 0.994522 177 179 179
0.170909 -0.285519 0.993153 179 181 181
0.172853 -0.285409 0.992773 177 179 179
0.174639 -0.285042 0.991496 173 175 175
0.176441 -0.284712 0.990347 167 168 170
0.178189 -0.284302 0.988922 163 164 166
0.180034 -0.284053 0.988056 164 165 167
0.181875 -0.283805 0.987192 163 164 166
0.183770 -0.283645 0.986638 160 163 166
0.185652 -0.283468 0.986022 158 161 164
0.187379 -0.283062 0.984609 156 159 162
0.189208 -0.282816 0.983752 152 155 158
0.191021 -0.282552 0.982834 150 153 156
0.192735 -0.282148 0.981430 149 152 155
0.194432 -0.281729 0.979970 151 154 157
0.196125 -0.281310 0.978514 157 160 163
0.197934 -0.281066 0.977667 161 164 167
0.199740 -0.280823 0.976821 165 168 171
0.201481 -0.280494 0.975675 171 174 175
0.203218 -0.280165 0.974532 175 178 179
0.205014 -0.279924 0.973692 177 180 183
0.206807 -0.279682 0.972853 174 177 180
0.208597 -0.279442 0.972015 171 173 179
0.210384 -0.279201 0.971179 168 170 176
0.212285 -0.279115 0.970881 167 169 175
0.214080 -0.278893 0.970106 167 169 175
0.215951 -0.278773 0.969689 167 169 175
0.217781 -0.278602 0.969095 167 169 175
0.219608 -0.278431 0.968501 167 169 175
0.221569 -0.278431 0.968501 168 170 176
0.223393 -0.278261 0.967908 167 172 177
0.225214 -0.278091 0.967316 168 173 178
0.227034 -0.277921 0.966724 169 174 179
0.228851 -0.277751 0.966133 169 174 179
0.230680 -0.277598 0.965602 168 174 181
0.232578 -0.277530 0.965366 168 174 181
0.234432 -0.277411 0.964953 163 174 179
0.236386 -0.277411 0.964953 158 169 174
0.238339 -0.277411 0.964953 154 165 170
0.240293 -0.277411 0.964953 150 161 166
0.242247 -0.277411 0.964953 140 157 161
0.244200 -0.277411 0.964953 131 148 152
0.246154 -0.277411 0.964953 122 139 143
0.248085 -0.277386 0.964865 114 131 135
0.249867 -0.277197 0.964206 101 121 127
0.251707 -0.277073 0.963777 91 111 117
0.253536 -0.276940 0.963313 82 102 108
0.255396 -0.276842 0.962972 74 94 100
0.257247 -0.276736 0.962603 73 92 100
0.259097 -0.276630 0.962234 73 92 100
0.261145 -0.276736 0.962603 75 94 102
0.263094 -0.276736 0.962603 76 95 103
0.265043 -0.276736 0.962603 82 98 107
0.266991 -0.276736 0.962603 86 102 111
0.268940 -0.276736 0.962603 92 108 117
0.270889 -0.276736 0.962603 96 112 121
0.272838 -0.276736 0.962603 98 114 123
0.274897 -0.276847 0.962990 99 115 124
0.276761 -0.276761 0.962691 98 114 123
0.278842 -0.276893 0.963148 100 116 125
0.280804 -0.276904 0.963189 99 118 126
0.282754 -0.276904 0.963189 100 119 127
0.284878 -0.277073 0.963777 99 118 126
0.286829 -0.277073 0.963777 97 116 124
0.288951 -0.277237 0.964347 94 113 121
0.290909 -0.277242 0.964365 89 108 116
0.292987 -0.277361 0.964777 85 104 112
0.294994 -0.277411 0.964953 83 102 110
0.296947 -0.277411 0.964953 81 97 106
0.298901 -0.277411 0.964953 90 106 115
0.301077 -0.277617 0.965667 114 130 139
0.303178 -0.277751 0.966133 139 155 164
0.305334 -0.277932 0.966765 162 173 184
0.307344 -0.277980 0.966931 172 183 194
0.309419 -0.278085 0.967298 171 181 192
0.311423 -0.278126 0.967440 164 174 185
0.313627 -0.278344 0.968198 163 171 181
0.315686 -0.278431 0.968501 160 168 178
0.317910 -0.278662 0.969303 157 163 171
0.320000 -0.278773 0.969689 144 150 158
0.322299 -0.279064 0.970702 139 144 151
0.324422 -0.279200 0.971173 137 142 149
0.326691 -0.279459 0.972075 128 130 138
0.328801 -0.279579 0.972493 119 121 129
0.330825 -0.279626 0.972655 108 114 119
0.333048 -0.279839 0.973398 103 109 114
0.335163 -0.279960 0.973818 98 109 112
0.337305 -0.280101 0.974310 96 107 110
0.339585 -0.280355 0.975194 90 105 109
0.341918 -0.280650 0.976217 86 101 105
0.344173 -0.280877 0.977008 83 98 102
0.346470 -0.281136 0.977909 77 92 96
0.348990 -0.281571 0.979424 67 90 91
0.352535 -0.282825 0.983782 64 87 88
0.357302 -0.285039 0.991484 59 85 86
0.364994 -0.289549 1.007172 62 88 89
0.392851 -0.309916 1.078018 83 106 108
-0.148719 -0.427946 1.499132 156 168 171
-0.124524 -0.365788 1.281389 147 159 164
-0.118360 -0.355080 1.243876 146 158 163
-0.114744 -0.351714 1.232086 149 161 167
-0.111283 -0.348686 1.221479 152 164 170
-0.107975 -0.346012 1.212112 153 164 169
-0.105287 -0.345244 1.209422 153 164 169
-0.102534 -0.344220 1.205833 152 161 168
-0.099817 -0.343274 1.202521 149 158 165
-0.097095 -0.342259 1.198964 146 154 164
-0.094331 -0.341043 1.194704 143 151 161
-0.091711 -0.340297 1.192091 143 151 161
-0.089042 -0.339322 1.188675 145 153 163
-0.086451 -0.338601 1.186151 153 158 169
-0.083870 -0.337876 1.183611 158 163 174
-0.081254 -0.336965 1.180420 161 167 175
-0.078633 -0.335977 1.176956 164 170 178
-0.076078 -0.335220 1.174307 166 172 180
-0.073474 -0.334190 1.170697 167 173 181
-0.070932 -0.333383 1.167869 167 173 181
-0.068336 -0.332253 1.163913 168 174 182
-0.065836 -0.331533 1.161390 169 178 185
-0.063348 -0.330818 1.158887 172 181 188
-0.060853 -0.330010 1.156055 172 181 188
-0.058369 -0.329199 1.153213 173 182 189
-0.055895 -0.328384 1.150359 174 183 189
-0.053451 -0.327681 1.147895 175 184 190
-0.051019 -0.326983 1.145449 179 185 190
-0.048615 -0.326412 1.143452 179 185 190
-0.046219 -0.325847 1.141470 180 186 193
-0.043807 -0.325093 1.138830 182 188 195
-0.041440 -0.324616 1.137159 184 189 194
-0.039081 -0.324140 1.135492 182 187 192
-0.036714 -0.323541 1.133391 179 185 187
-0.034367 -0.323047 1.131663 176 182 184
-0.032021 -0.322493 1.129722 171 177 179
-0.029663 -0.321734 1.127063 164 170 172
-0.027335 -0.321182 1.125130 158 164 166
-0.025025 -0.320780 1.123722 154 160 162
-0.022706 -0.320152 1.121521 154 159 164
-0.020410 -0.319751 1.120114 158 163 168
-0.018111 -0.319208 1.118213 160 166 168
-0.015821 -0.318689 1.116396 163 169 171
-0.013547 -0.318352 1.115215 163 168 173
-0.011270 -0.317814 1.113329 163 168 173
-0.009001 -0.317277 1.111450 160 165 170
-0.006739 -0.316754 1.109617 158 163 168
-0.004488 -0.316410 1.108411 156 161 168
-0.002240 -0.315900 1.106626 155 160 167
0.000000 -0.315370 1.104769 156 161 166
0.002233 -0.314862 1.102988 155 160 165
0.004461 -0.314535 1.101843 154 160 165
0.006681 -0.314009 1.100003 153 159 164
0.008899 -0.313704 1.098932 148 160 160
0.011111 -0.313333 1.097635 147 159 159
0.013315 -0.312899 1.096112 147 157 158
0.015518 -0.312574 1.094973 146 156 157
0.017716 -0.312251 1.093844 144 154 155
0.019899 -0.311753 1.092098 142 152 153
0.022089 -0.311452 1.091043 144 151 153
0.024257 -0.310937 1.089238 143 150 152
0.026437 -0.310637 1.088188 143 149 154
0.028611 -0.310316 1.087066 143 149 154
0.030763 -0.309826 1.085349 143 149 154
0.032922 -0.309465 1.084083 143 149 154
0.035066 -0.309020 1.082524 144 151 153
0.037209 -0.308618 1.081117 143 150 152
0.039347 -0.308218 1.079714 144 151 153
0.041493 -0.307923 1.078683 144 151 153
0.043606 -0.307420 1.076919 145 151 153
0.045742 -0.307127 1.075892 146 152 154
0.047875 -0.306834 1.074868 147 153 153
0.050000 -0.306522 1.073773 148 154 154
0.052093 -0.306044 1.072098 148 154 156
0.054201 -0.305691 1.070863 149 155 157
0.056288 -0.305257 1.069341 153 156 159
0.058378 -0.304865 1.067969 156 159 162
0.060459 -0.304453 1.066527 158 161 164
0.062521 -0.303982 1.064875 161 164 167
0.064576 -0.303505 1.063206 163 166 169
0.066662 -0.303205 1.062155 165 168 171
0.068702 -0.302717 1.060445 167 168 170
0.070735 -0.302231 1.058740 168 169 171
0.072810 -0.301947 1.057749 168 169 173
0.074866 -0.301604 1.056547 171 172 176
0.076903 -0.301202 1.055136 173 174 176
0.078960 -0.300900 1.054080 176 177 179
0.081018 -0.300620 1.053097 179 178 182
0.083073 -0.300339 1.052116 179 178 182
0.085067 -0.299860 1.050438 180 179 183
0.087112 -0.299582 1.049461 181 180 184
0.089125 -0.299204 1.048139 182 181 185
0.091132 -0.298828 1.046820 181 180 184
0.093165 -0.298551 1.045850 181 179 186
0.095148 -0.298131 1.044379 182 180 187
0.097155 -0.297802 1.043227 183 181 188
0.099146 -0.297439 1.041955 184 182 189
0.101132 -0.297075 1.040679 183 183 190
0.103138 -0.296784 1.039659 185 185 192
0.105125 -0.296452 1.038498 188 186 193
0.107087 -0.296063 1.037135 189 187 194
0.109079 -0.295772 1.036115 188 188 195
0.111003 -0.295309 1.034494 188 188 195
0.112919 -0.294844 1.032865 189 190 194
0.114830 -0.294382 1.031248 190 191 195
0.116804 -0.294097 1.030246 191 192 196
0.118711 -0.293654 1.028697 191 192 196
0.120676 -0.293368 1.027694 190 191 195
0.122597 -0.292987 1.026359 189 190 194
0.124538 -0.292664 1.025228 186 189 192
0.126417 -0.292209 1.023634 186 189 192
0.128290 -0.291756 1.022046 185 188 189
0.130157 -0.291304 1.020462 184 187 188
0.132078 -0.290984 1.019343 184 187 190
0.133960 -0.290591 1.017965 184 187 190
0.135899 -0.290329 1.017048 183 186 187
0.137701 -0.289788 1.015153 183 186 187
0.139496 -0.289249 1.013266 182 185 186
0.141330 -0.288805 1.011709 180 183 184
0.143223 -0.288491 1.010610 179 182 183
0.145074 -0.288104 1.009255 176 179 180
0.146934 -0.287746 1.008000 177 180 181
0.148790 -0.287389 1.006747 180 183 184
0.150607 -0.286968 1.005275 179 185 185
0.152478 -0.286658 1.004189 178 184 184
0.154315 -0.286294 1.002915 179 182 183
0.156197 -0.286022 1.001961 176 179 180
0.157985 -0.285588 1.000439 170 173 174
0.159868 -0.285335 0.999553 163 166 167
0.161749 -0.285082 0.998669 159 162 163
0.163523 -0.284651 0.997157 157 160 161
0.165396 -0.284400 0.996277 163 164 166
0.167254 -0.284131 0.995336 169 170 172
0.169057 -0.283774 0.994084 173 175 175
0.170886 -0.283471 0.993022 175 177 177
0.172853 -0.283399 0.992773 171 173 173
0.174600 -0.282973 0.991278 167 169 169
0.176442 -0.282709 0.990353 163 164 166
0.178189 -0.282300 0.988922 162 163 165
0.180003 -0.282005 0.987890 163 164 166
0.181875 -0.281806 0.987192 161 162 164
0.183770 -0.281648 0.986638 158 161 164
0.185663 -0.281490 0.986084 156 159 162
0.187461 -0.281192 0.985039 156 159 162
0.189208 -0.280824 0.983752 151 154 157
0.191022 -0.280564 0.982840 149 152 155
0.192735 -0.280161 0.981430 151 154 157
0.194432 -0.279745 0.979970 153 156 159
0.196201 -0.279438 0.978896 157 160 163
0.197934 -0.279087 0.977667 161 164 167
0.199740 -0.278846 0.976821 168 171 174
0.201481 -0.278519 0.975675 175 178 179
0.203218 -0.278192 0.974532 179 182 183
0.205052 -0.278004 0.973872 181 184 187
0.206807 -0.277713 0.972853 177 180 183
0.208610 -0.277491 0.972075 171 173 179
0.210449 -0.277320 0.971477 170 172 178
0.212285 -0.277150 0.970881 170 172 178
0.214119 -0.276980 0.970285 168 170 176
0.215991 -0.276861 0.969868 168 170 176
0.217901 -0.276793 0.969630 167 169 175
0.219675 -0.276555 0.968798 168 170 176
0.221569 -0.276471 0.968501 169 171 177
0.223402 -0.276313 0.967949 167 172 177
0.225214 -0.276132 0.967316 169 174 179
0.227159 -0.276115 0.967256 168 173 178
0.228921 -0.275879 0.966428 169 174 179
0.230807 -0.275795 0.966133 168 174 181
0.232710 -0.275732 0.965914 168 174 181
0.234575 -0.275626 0.965543 162 173 178
0.236529 -0.275624 0.965537 157 168 173
0.238470 -0.275609 0.965484 154 165 170
0.240440 -0.275626 0.965543 146 157 162
0.242390 -0.275621 0.965525 132 149 153
0.244240 -0.275503 0.965112 122 139 143
0.246276 -0.275594 0.965431 112 129 133
0.248107 -0.275458 0.964953 102 119 123
0.249924 -0.275307 0.964423 91 111 117
0.251856 -0.275285 0.964347 82 102 108
0.253659 -0.275122 0.963777 78 98 104
0.255580 -0.275090 0.963665 74 94 100
0.257318 -0.274862 0.962867 73 92 100
0.259196 -0.274787 0.962603 75 94 102
0.261145 -0.274787 0.962603 75 94 102
0.263094 -0.274787 0.962603 76 95 103
0.265043 -0.274787 0.962603 81 97 106
0.266991 -0.274787 0.962603 86 102 111
0.268940 -0.274787 0.962603 92 108 117
0.270889 -0.274787 0.962603 96 112 121
0.272954 -0.274904 0.963013 100 116 125
0.274954 -0.274954 0.963189 101 117 126
0.276896 -0.274946 0.963160 102 118 127
0.278854 -0.274954 0.963189 105 121 130
0.280958 -0.275105 0.963718 105 124 132
0.282927 -0.275122 0.963777 105 124 132
0.284878 -0.275122 0.963777 103 122 130
0.286917 -0.275206 0.964071 98 117 125
0.288957 -0.275290 0.964365 93 112 120
0.291087 -0.275458 0.964953 88 107 115
0.293040 -0.275458 0.964953 83 102 110
0.294994 -0.275458 0.964953 89 108 116
0.297120 -0.275618 0.965513 101 117 126
0.299084 -0.275626 0.965543 127 143 152
0.301222 -0.275795 0.966133 154 170 179
0.303178 -0.275795 0.966133 160 176 185
0.305340 -0.275980 0.966783 165 176 187
0.307466 -0.276132 0.967316 159 170 181
0.309425 -0.276132 0.967316 154 164 175
0.311612 -0.276335 0.968027 147 157 168
0.313725 -0.276471 0.968501 144 152 162
0.315862 -0.276625 0.969041 141 149 159
0.317939 -0.276725 0.969392 137 143 151
0.320354 -0.277116 0.970761 129 135 143
0.322412 -0.277196 0.971042 124 129 136
0.324717 -0.277486 0.972057 120 125 132
0.327073 -0.277815 0.973212 115 117 125
0.329064 -0.277833 0.973272 110 112 120
0.331035 -0.277833 0.973272 103 109 114
0.333457 -0.278209 0.974592 102 108 113
0.335767 -0.278489 0.975573 96 107 110
0.337797 -0.278534 0.975729 93 104 107
0.340142 -0.278837 0.976791 85 100 104
0.342551 -0.279189 0.978024 80 95 99
0.344746 -0.279363 0.978635 76 91 95
0.346863 -0.279473 0.979017 70 85 89
0.349399 -0.279916 0.980572 62 85 86
0.353304 -0.281446 0.985930 61 84 85
0.359100 -0.284455 0.996472 62 88 89
0.380331 -0.299591 1.049492 83 109 110
-0.130437 -0.372678 1.314848 149 161 166
-0.122147 -0.356262 1.256933 148 160 165
-0.117637 -0.350408 1.236278 148 160 165
-0.114135 -0.347368 1.225551 153 164 170
-0.110854 -0.344881 1.216777 154 165 171
-0.107703 -0.342691 1.209052 152 163 168
-0.104950 -0.341698 1.205548 151 162 167
-0.102276 -0.340920 1.202805 150 159 166
-0.099492 -0.339729 1.198600 148 157 164
-0.096806 -0.338822 1.195400 145 153 163
-0.094090 -0.337759 1.191651 144 152 162
-0.091487 -0.337058 1.189176 146 154 164
-0.088823 -0.336087 1.185751 153 161 171
-0.086264 -0.335472 1.183584 160 165 176
-0.083659 -0.334636 1.180631 163 168 179
-0.081066 -0.333803 1.177693 163 172 179
-0.078504 -0.333048 1.175032 164 173 180
-0.075909 -0.332100 1.171687 165 174 181
-0.073370 -0.331346 1.169026 166 175 182
-0.070828 -0.330530 1.166145 167 176 183
-0.068275 -0.329606 1.162885 167 176 183
-0.065759 -0.328795 1.160026 166 177 183
-0.063259 -0.328010 1.157257 169 180 186
-0.060758 -0.327158 1.154249 172 181 187
-0.058306 -0.326514 1.151977 173 182 188
-0.055846 -0.325771 1.149355 173 182 188
-0.053389 -0.324979 1.146562 173 182 188
-0.050948 -0.324215 1.143866 175 184 190
-0.048543 -0.323622 1.141775 177 186 192
-0.046171 -0.323200 1.140284 181 187 192
-0.043769 -0.322511 1.137854 183 189 194
-0.041394 -0.321955 1.135892 181 187 192
-0.039027 -0.321400 1.133936 178 184 189
-0.036668 -0.320848 1.131987 176 181 186
-0.034333 -0.320442 1.130554 168 173 178
-0.031995 -0.319954 1.128834 160 166 168
-0.029650 -0.319304 1.126541 155 161 163
-0.027313 -0.318657 1.124257 154 160 162
-0.024999 -0.318175 1.122557 156 162 164
-0.022694 -0.317715 1.120933 159 165 167
-0.020395 -0.317258 1.119321 161 167 169
-0.018104 -0.316820 1.117778 161 167 169
-0.015818 -0.316364 1.116168 161 167 169
-0.013537 -0.315864 1.114405 158 164 166
-0.011267 -0.315477 1.113039 157 163 165
-0.009001 -0.315027 1.111450 157 162 167
-0.006739 -0.314496 1.109578 156 161 166
-0.004485 -0.313967 1.107712 158 163 168
-0.002240 -0.313594 1.106393 158 163 168
0.000000 -0.313133 1.104769 155 160 165
0.002233 -0.312609 1.102919 155 160 165
0.004458 -0.312086 1.101075 153 159 164
0.006681 -0.311782 1.100003 151 157 162
0.008899 -0.311457 1.098855 147 159 159
0.011106 -0.310960 1.097101 146 158 158
0.013314 -0.310658 1.096036 146 156 157
0.015512 -0.310249 1.094594 145 155 156
0.017705 -0.309842 1.093156 142 152 153
0.019899 -0.309542 1.092098 142 152 153
0.022088 -0.309228 1.090990 144 150 155
0.024259 -0.308753 1.089313 143 149 154
0.026437 -0.308434 1.088188 141 151 152
0.028611 -0.308116 1.087066 141 151 152
0.030763 -0.307629 1.085349 141 151 152
0.032922 -0.307270 1.084083 141 151 152
0.035066 -0.306828 1.082524 143 150 152
0.037209 -0.306430 1.081117 144 151 153
0.039347 -0.306032 1.079714 144 151 153
0.041491 -0.305725 1.078631 144 151 153
0.043606 -0.305239 1.076919 146 152 154
0.045739 -0.304930 1.075827 147 153 155
0.047859 -0.304555 1.074503 148 154 156
0.049997 -0.304329 1.073707 148 154 156
0.052093 -0.303873 1.072098 149 155 157
0.054198 -0.303509 1.070812 151 157 159
0.056288 -0.303092 1.069341 156 159 162
0.058359 -0.302600 1.067608 158 161 164
0.060422 -0.302111 1.065880 161 164 167
0.062518 -0.301812 1.064825 165 168 171
0.064573 -0.301339 1.063156 167 168 172
0.066617 -0.300853 1.061442 168 169 173
0.068656 -0.300369 1.059734 169 170 174
0.070692 -0.299904 1.058096 170 171 175
0.072761 -0.299605 1.057041 171 172 176
0.074831 -0.299325 1.056052 174 175 179
0.076893 -0.299027 1.055002 178 177 181
0.078933 -0.298667 1.053729 179 178 182
0.080964 -0.298289 1.052396 180 179 183
0.083017 -0.298011 1.051416 181 180 184
0.085061 -0.297714 1.050368 183 180 185
0.087055 -0.297260 1.048765 184 181 186
0.089092 -0.296974 1.047757 184 183 187
0.091126 -0.296689 1.046751 183 182 186
0.093120 -0.296290 1.045346 183 181 188
0.095131 -0.295964 1.044192 184 182 189
0.097097 -0.295513 1.042601 185 183 190
0.099107 -0.295213 1.041543 185 183 190
0.101059 -0.294756 1.039933 187 185 192
0.103070 -0.294485 1.038976 188 186 193
0.105077 -0.294214 1.038020 189 187 194
0.107073 -0.293927 1.037006 190 188 195
0.109040 -0.293568 1.035742 188 189 193
0.111001 -0.293211 1.034481 189 190 194
0.112892 -0.292682 1.032616 189 192 195
0.114828 -0.292289 1.031228 190 193 196
0.116735 -0.291838 1.029636 191 192 196
0.118634 -0.291382 1.028028 191 192 196
0.120606 -0.291117 1.027093 190 191 195
0.122574 -0.290852 1.026160 188 189 193
0.124457 -0.290400 1.024563 186 189 192
0.126335 -0.289949 1.022972 186 189 192
0.128207 -0.289499 1.021385 184 187 190
0.130073 -0.289051 1.019804 184 187 190
0.132018 -0.288790 1.018883 183 186 187
0.133897 -0.288394 1.017486 183 186 187
0.135811 -0.288084 1.016394 182 185 188
0.137656 -0.287640 1.014827 181 184 187
0.139496 -0.287198 1.013266 180 183 186
0.141330 -0.286757 1.011709 178 181 184
0.143158 -0.286317 1.010158 174 177 178
0.145064 -0.286043 1.009190 175 178 179
0.146892 -0.285623 1.007710 175 178 179
0.148781 -0.285334 1.006690 177 180 181
0.150607 -0.284933 1.005275 177 183 183
0.152471 -0.284612 1.004144 177 183 183
0.154305 -0.284246 1.002851 177 180 181
0.156147 -0.283904 1.001644 174 177 178
0.157985 -0.283562 1.000439 166 169 170
0.159868 -0.283311 0.999553 159 162 163
0.161739 -0.283043 0.998606 157 160 161
0.163523 -0.282632 0.997157 155 158 159
0.165396 -0.282383 0.996277 160 163 164
0.167254 -0.282116 0.995336 166 169 170
0.169057 -0.281761 0.994084 170 173 174
0.170886 -0.281460 0.993022 170 173 174
0.172745 -0.281213 0.992150 166 169 170
0.174600 -0.280966 0.991278 162 165 166
0.176342 -0.280544 0.989789 161 164 165
0.178189 -0.280298 0.988922 161 164 165
0.180000 -0.280000 0.987871 162 165 168
0.181885 -0.279823 0.987248 158 161 164
0.183770 -0.279650 0.986638 157 160 163
0.185652 -0.279476 0.986022 158 161 164
0.187379 -0.279076 0.984609 156 159 162
0.189208 -0.278832 0.983752 154 157 160
0.191021 -0.278572 0.982834 153 156 157
0.192735 -0.278174 0.981430 153 156 157
0.194530 -0.277900 0.980462 154 160 162
0.196242 -0.277515 0.979102 158 164 166
0.197934 -0.277108 0.977667 163 169 171
0.199740 -0.276868 0.976821 169 175 177
0.201544 -0.276629 0.975976 177 183 185
0.203344 -0.276390 0.975133 181 187 189
0.205141 -0.276151 0.974292 182 188 190
0.206897 -0.275862 0.973272 178 184 186
0.208610 -0.275523 0.972075 173 178 183
0.210513 -0.275438 0.971776 174 179 184
0.212298 -0.275201 0.970940 175 180 185
0.214251 -0.275184 0.970881 175 180 185
0.215991 -0.274897 0.969868 175 180 185
0.217901 -0.274830 0.969630 170 175 180
0.219675 -0.274594 0.968798 167 173 178
0.221569 -0.274510 0.968501 166 172 177
0.223351 -0.274291 0.967730 166 172 177
0.225214 -0.274174 0.967316 166 172 177
0.227160 -0.274159 0.967262 166 172 177
0.228921 -0.273922 0.966428 168 174 179
0.230807 -0.273839 0.966133 166 175 181
0.232720 -0.273788 0.965956 165 174 180
0.234575 -0.273671 0.965543 159 170 176
0.236530 -0.273671 0.965543 154 165 171
0.238485 -0.273671 0.965543 145 160 165
0.240440 -0.273671 0.965543 134 149 154
0.242395 -0.273671 0.965543 122 139 143
0.244349 -0.273671 0.965543 111 128 132
0.246304 -0.273671 0.965543 98 117 123
0.248107 -0.273504 0.964953 91 110 116
0.249924 -0.273354 0.964423 82 102 108
0.251861 -0.273337 0.964365 78 98 104
0.253663 -0.273176 0.963794 76 96 104
0.255610 -0.273171 0.963777 74 94 102
0.257404 -0.273004 0.963189 75 94 100
0.259196 -0.272838 0.962603 75 94 100
0.261145 -0.272838 0.962603 75 94 102
0.263094 -0.272838 0.962603 77 96 104
0.265043 -0.272838 0.962603 82 98 107
0.266991 -0.272838 0.962603 88 104 113
0.268940 -0.272838 0.962603 95 111 120
0.270889 -0.272838 0.962603 101 117 126
0.272943 -0.272943 0.962972 107 123 132
0.274954 -0.273004 0.963189 108 124 133
0.276904 -0.273004 0.963189 110 126 135
0.279023 -0.273169 0.963771 112 128 137
0.280976 -0.273171 0.963777 112 128 137
0.282927 -0.273171 0.963777 110 126 135
0.284878 -0.273171 0.963777 107 123 132
0.287004 -0.273337 0.964365 100 116 125
0.289117 -0.273489 0.964900 92 111 119
0.291087 -0.273504 0.964953 89 108 116
0.293094 -0.273554 0.965130 89 108 116
0.295174 -0.273671 0.965543 110 129 137
0.297301 -0.273830 0.966104 138 154 163
0.299267 -0.273839 0.966133 152 168 177
0.301222 -0.273839 0.966133 155 171 180
0.303308 -0.273956 0.966547 150 166 175
0.305508 -0.274174 0.967316 148 159 170
0.307466 -0.274174 0.967316 145 156 167
0.309614 -0.274342 0.967908 141 151 162
0.311765 -0.274510 0.968501 133 143 154
0.313725 -0.274510 0.968501 130 138 148
0.316074 -0.274847 0.969689 126 134 144
0.318242 -0.275024 0.970314 122 128 136
0.320570 -0.275336 0.971418 118 124 132
0.322755 -0.275523 0.972075 114 119 126
0.325003 -0.275760 0.972913 110 115 122
0.327259 -0.276001 0.973764 106 112 119
0.329267 -0.276032 0.973872 105 111 118
0.331424 -0.276187 0.974418 100 111 116
0.333895 -0.276600 0.975874 97 108 113
0.336238 -0.276902 0.976942 90 105 109
0.338616 -0.277229 0.978096 83 98 102
0.341027 -0.277580 0.979332 73 93 95
0.343444 -0.277931 0.980572 68 88 90
0.345860 -0.278278 0.981796 66 86 88
0.348021 -0.278417 0.982284 64 84 86
0.350796 -0.279043 0.984493 55 81 82
0.354998 -0.280790 0.990657 56 82 83
0.366246 -0.288059 1.016303 75 101 102
-0.137161 -0.381308 1.354975 149 161 166
-0.126160 -0.357881 1.271728 147 159 164
-0.120969 -0.350305 1.244807 149 161 166
-0.117058 -0.346194 1.230197 152 164 169
-0.113579 -0.343207 1.219584 155 166 172
-0.110462 -0.341206 1.212474 154 165 171
-0.107464 -0.339490 1.206376 152 163 168
-0.104746 -0.338599 1.203208 149 160 165
-0.102009 -0.337601 1.199664 149 158 165
-0.099349 -0.336817 1.196875 147 156 163
-0.096575 -0.335597 1.192541 147 155 165
-0.093835 -0.334436 1.188416 149 157 167
-0.091291 -0.333934 1.186632 153 161 171
-0.088636 -0.332984 1.183256 160 168 178
-0.086074 -0.332340 1.180966 165 170 181
-0.083495 -0.331594 1.178316 167 172 183
-0.080940 -0.330903 1.175862 165 174 181
-0.078367 -0.330093 1.172982 166 175 182
-0.075786 -0.329196 1.169796 167 176 183
-0.073260 -0.328486 1.167274 167 176 183
-0.070723 -0.327685 1.164427 166 175 182
-0.068180 -0.326795 1.161262 167 176 183
-0.065665 -0.325980 1.158368 168 179 185
-0.063167 -0.325194 1.155574 170 181 187
-0.060703 -0.324529 1.153213 173 182 188
-0.058237 -0.323797 1.150610 173 182 188
-0.055769 -0.322998 1.147770 172 181 187
-0.053333 -0.322319 1.145358 174 183 189
-0.050908 -0.321643 1.142956 175 184 190
-0.048482 -0.320903 1.140325 177 186 192
-0.046103 -0.320413 1.138584 182 188 193
-0.043728 -0.319908 1.136791 181 187 192
-0.041356 -0.319357 1.134832 178 184 189
-0.038999 -0.318876 1.133123 172 178 183
-0.036637 -0.318280 1.131007 166 171 176
-0.034293 -0.317782 1.129237 158 163 168
-0.031952 -0.317238 1.127304 155 161 163
-0.029619 -0.316696 1.125378 156 162 164
-0.027294 -0.316156 1.123458 158 164 166
-0.024977 -0.315618 1.121545 161 167 169
-0.022680 -0.315258 1.120265 161 167 169
-0.020377 -0.314709 1.118315 161 167 169
-0.018085 -0.314235 1.116633 159 165 167
-0.015806 -0.313865 1.115317 157 163 165
-0.013528 -0.313394 1.113643 156 162 164
-0.011260 -0.313019 1.112311 156 162 164
-0.008995 -0.312572 1.110724 157 162 167
-0.006739 -0.312250 1.109578 157 162 167
-0.004485 -0.311725 1.107712 158 163 168
-0.002239 -0.311201 1.105852 155 160 165
0.000000 -0.310680 1.103998 154 159 164
0.002233 -0.310376 1.102919 154 159 164
0.004458 -0.309857 1.101075 151 157 162
0.006681 -0.309555 1.100003 150 156 161
0.008893 -0.309039 1.098168 146 158 158
0.011106 -0.308739 1.097101 145 157 157
0.013314 -0.308439 1.096036 145 155 156
0.015511 -0.308001 1.094480 144 154 155
0.017705 -0.307628 1.093156 142 152 153
