ply
format ascii 1.0
element vertex 1181
property float x
property float y
property float z
property uchar red
property uchar green
property uchar blue
end_header
0.087766 -0.283412 1.965451 197 200 203
0.089595 -0.283412 1.965451 197 200 203
0.091423 -0.283412 1.965451 197 200 203
0.093252 -0.283412 1.965451 197 200 203
0.095080 -0.283412 1.965451 196 199 202
0.096909 -0.283412 1.965451 197 200 203
0.098681 -0.283251 1.964329 197 200 203
0.100472 -0.283149 1.963622 197 200 203
0.102283 -0.283105 1.963320 197 200 203
0.104104 -0.283089 1.963207 196 199 202
0.105930 -0.283089 1.963207 196 199 202
0.107756 -0.283089 1.963207 195 198 201
0.109522 -0.282932 1.962121 196 199 202
0.111339 -0.282911 1.961976 196 199 202
0.113106 -0.282766 1.960969 196 199 202
0.114872 -0.282621 1.959963 195 198 201
0.116688 -0.282605 1.959852 195 198 201
0.118512 -0.282605 1.959852 196 199 202
0.120266 -0.282444 1.958736 196 199 202
0.122019 -0.282283 1.957621 196 199 202
0.123777 -0.282139 1.956619 195 198 201
0.125590 -0.282123 1.956507 196 199 202
0.127338 -0.281962 1.955395 197 200 201
0.129157 -0.281962 1.955395 197 200 201
0.130976 -0.281962 1.955395 197 200 203
0.132727 -0.281818 1.954395 197 200 203
0.134538 -0.281802 1.954284 198 201 204
0.136278 -0.281642 1.953175 198 201 204
0.138017 -0.281482 1.952066 199 202 205
0.139790 -0.281394 1.951457 199 202 205
0.141569 -0.281323 1.950959 200 203 206
0.143384 -0.281323 1.950959 201 204 207
0.145116 -0.281163 1.949853 201 204 207
0.146847 -0.281004 1.948748 202 205 208
0.148572 -0.280837 1.947590 203 206 209
0.150303 -0.280686 1.946543 203 206 209
0.152191 -0.280829 1.947535 204 207 210
0.154003 -0.280829 1.947535 204 207 210
0.155823 -0.280843 1.947634 205 207 213
0.157502 -0.280606 1.945992 205 207 213
0.159185 -0.280383 1.944441 202 207 212
0.160868 -0.280163 1.942914 202 207 212
0.162611 -0.280052 1.942147 200 206 208
0.164325 -0.279894 1.941051 198 204 206
0.166131 -0.279894 1.941051 196 202 207
0.167842 -0.279736 1.939956 196 202 207
0.169577 -0.279621 1.939158 195 201 206
0.171444 -0.279725 1.939879 194 200 205
0.173256 -0.279736 1.939956 190 199 205
0.175061 -0.279736 1.939956 188 197 203
0.176865 -0.279736 1.939956 188 197 203
0.178700 -0.279783 1.940284 187 196 202
0.180482 -0.279747 1.940033 183 194 199
0.182383 -0.279895 1.941061 182 193 198
0.184344 -0.280131 1.942695 179 190 195
0.186404 -0.280511 1.945332 176 187 192
0.188737 -0.281291 1.950738 167 184 188
0.191224 -0.282283 1.957621 161 178 182
0.194295 -0.284110 1.970292 148 168 171
0.198355 -0.287336 1.992664 137 157 160
0.205731 -0.295263 2.047633 124 146 151
-0.497076 -0.757919 5.290259 139 165 165
-0.459512 -0.707649 4.939377 138 164 164
-0.425634 -0.662098 4.621430 136 162 162
-0.395560 -0.621594 4.338716 137 160 161
-0.365356 -0.580050 4.048743 136 159 160
-0.327973 -0.526123 3.672331 137 158 161
-0.289005 -0.468492 3.270064 141 162 165
-0.254531 -0.416997 2.910634 145 165 167
-0.230859 -0.382282 2.668322 146 166 168
-0.211333 -0.353753 2.469192 151 166 170
-0.196160 -0.331963 2.317098 155 170 174
-0.185010 -0.316573 2.209675 160 171 174
-0.176975 -0.306226 2.137450 164 175 178
-0.171723 -0.300515 2.097592 170 176 181
-0.168065 -0.297495 2.076508 174 180 185
-0.165564 -0.296475 2.069387 176 183 185
-0.163147 -0.295584 2.063169 177 184 186
-0.160785 -0.294772 2.057504 180 186 188
-0.158482 -0.294051 2.052471 182 188 190
-0.156330 -0.293595 2.049291 181 187 187
-0.154103 -0.292986 2.045039 181 187 187
-0.151885 -0.292378 2.040793 184 187 188
-0.149704 -0.291827 2.036950 184 187 188
-0.147815 -0.291839 2.037034 184 187 188
-0.145756 -0.291511 2.034745 183 186 187
-0.143702 -0.291186 2.032472 184 187 188
-0.141735 -0.291029 2.031380 185 188 189
-0.139672 -0.290669 2.028864 188 191 192
-0.137793 -0.290686 2.028984 191 194 195
-0.135825 -0.290515 2.027787 189 192 193
-0.133853 -0.290328 2.026485 192 195 196
-0.131913 -0.290208 2.025650 194 195 197
-0.129908 -0.289939 2.023767 193 194 196
-0.128004 -0.289891 2.023433 192 193 195
-0.126095 -0.289831 2.023017 191 192 194
-0.124052 -0.289455 2.020391 191 192 194
-0.122051 -0.289166 2.018376 192 193 195
-0.120045 -0.288858 2.016222 194 193 195
-0.118150 -0.288812 2.015903 193 192 194
-0.116275 -0.288812 2.015903 192 191 193
-0.114406 -0.288827 2.016010 193 192 194
-0.112464 -0.288658 2.014829 193 192 194
-0.110515 -0.288462 2.013461 193 192 194
-0.108560 -0.288246 2.011953 194 193 195
-0.106609 -0.288030 2.010448 193 192 194
-0.104667 -0.287835 2.009086 194 193 195
-0.102744 -0.287682 2.008018 194 193 195
-0.100876 -0.287682 2.008018 195 194 196
-0.098950 -0.287515 2.006847 195 194 196
-0.097068 -0.287469 2.006531 196 196 196
-0.095132 -0.287261 2.005080 197 197 197
-0.093240 -0.287179 2.004508 197 197 197
-0.091359 -0.287129 2.004158 198 198 198
-0.089458 -0.287012 2.003341 199 199 199
-0.087595 -0.287012 2.003341 200 200 200
-0.085731 -0.287012 2.003341 200 199 201
-0.083833 -0.286895 2.002524 200 199 201
-0.081956 -0.286845 2.002175 202 201 203
-0.080093 -0.286845 2.002175 201 200 202
-0.078229 -0.286840 2.002140 201 200 204
-0.076368 -0.286845 2.002175 200 199 203
-0.074475 -0.286728 2.001359 201 200 204
-0.072558 -0.286512 1.999846 200 199 203
-0.070657 -0.286345 1.998684 200 198 205
-0.068797 -0.286345 1.998684 200 198 205
-0.066899 -0.286179 1.997524 201 200 204
-0.065011 -0.286048 1.996608 200 199 203
-0.063132 -0.285951 1.995936 199 198 202
-0.061265 -0.285905 1.995612 199 198 202
-0.059397 -0.285847 1.995206 198 198 205
-0.057541 -0.285847 1.995206 198 198 205
-0.055684 -0.285847 1.995206 197 197 204
-0.053797 -0.285681 1.994050 197 197 204
-0.051972 -0.285847 1.995206 196 197 201
-0.050116 -0.285847 1.995206 196 197 201
-0.048232 -0.285681 1.994050 196 197 201
-0.046371 -0.285646 1.993807 197 198 202
-0.044512 -0.285620 1.993622 200 199 203
-0.042642 -0.285516 1.992895 200 199 203
-0.040788 -0.285516 1.992895 199 198 202
-0.038922 -0.285431 1.992306 200 199 203
-0.037058 -0.285350 1.991741 201 200 204
-0.035205 -0.285345 1.991706 200 199 203
-0.033333 -0.285185 1.990588 200 199 203
-0.031481 -0.285185 1.990588 201 200 204
-0.029612 -0.285020 1.989437 201 200 204
-0.027757 -0.284971 1.989092 200 199 203
-0.025896 -0.284855 1.988287 200 199 203
-0.024046 -0.284855 1.988287 199 198 202
-0.022184 -0.284691 1.987138 199 198 202
-0.020332 -0.284642 1.986794 200 199 203
-0.018476 -0.284527 1.985991 200 199 203
-0.016627 -0.284510 1.985876 201 200 204
-0.014772 -0.284362 1.984845 199 198 200
-0.012924 -0.284318 1.984536 200 199 201
-0.011076 -0.284279 1.984261 201 200 202
-0.009227 -0.284198 1.983700 202 201 203
-0.007378 -0.284035 1.982557 201 200 202
-0.005532 -0.283953 1.981986 202 201 203
-0.003687 -0.283871 1.981415 202 201 203
-0.001843 -0.283871 1.981415 202 201 203
0.000000 -0.283871 1.981415 201 200 202
0.001842 -0.283708 1.980274 200 199 201
0.003682 -0.283544 1.979134 200 199 201
0.005524 -0.283544 1.979134 200 199 201
0.007363 -0.283461 1.978554 200 199 201
0.009200 -0.283347 1.977758 199 198 200
0.011034 -0.283213 1.976825 198 199 201
0.012872 -0.283194 1.976689 197 198 200
0.014704 -0.283056 1.975724 198 200 200
0.016537 -0.282973 1.975146 199 201 201
0.018370 -0.282893 1.974590 198 199 201
0.020195 -0.282731 1.973457 199 200 202
0.022025 -0.282650 1.972891 199 200 202
0.023853 -0.282569 1.972326 198 199 201
0.025687 -0.282554 1.972224 199 198 200
0.027507 -0.282407 1.971195 198 197 199
0.029335 -0.282347 1.970777 197 196 198
0.031157 -0.282245 1.970066 196 195 197
0.032990 -0.282245 1.970066 195 194 196
0.034803 -0.282084 1.968939 194 193 195
0.036634 -0.282084 1.968939 193 192 196
0.038464 -0.282067 1.968826 193 192 196
0.040275 -0.281922 1.967812 193 192 196
0.042105 -0.281922 1.967812 192 191 195
0.043923 -0.281840 1.967238 192 191 195
0.045740 -0.281761 1.966687 194 193 197
0.047570 -0.281761 1.966687 195 194 198
0.049386 -0.281680 1.966125 195 194 198
0.051200 -0.281600 1.965563 196 195 199
0.052998 -0.281439 1.964441 196 195 199
0.054826 -0.281439 1.964441 194 195 199
0.056621 -0.281279 1.963320 194 195 199
0.058447 -0.281279 1.963320 192 193 197
0.060264 -0.281230 1.962983 192 193 197
0.062097 -0.281264 1.963219 191 192 196
0.063898 -0.281152 1.962435 191 192 196
0.065716 -0.281118 1.962200 192 193 197
0.067541 -0.281118 1.962200 192 193 197
0.069392 -0.281219 1.962905 191 192 196
0.071224 -0.281245 1.963084 192 193 197
0.073059 -0.281279 1.963320 191 192 196
0.074886 -0.281279 1.963320 192 193 197
0.076712 -0.281279 1.963320 192 193 197
0.078539 -0.281279 1.963320 192 193 197
0.080365 -0.281279 1.963320 192 193 195
0.082192 -0.281279 1.963320 193 194 196
0.084018 -0.281279 1.963320 193 194 198
0.085845 -0.281279 1.963320 194 195 199
0.087656 -0.281230 1.962983 194 197 200
0.089498 -0.281279 1.963320 194 197 200
0.091324 -0.281279 1.963320 194 197 200
0.093151 -0.281279 1.963320 194 197 200
0.094977 -0.281279 1.963320 194 197 200
0.096802 -0.281274 1.963286 194 197 200
0.098574 -0.281118 1.962200 194 197 200
0.100382 -0.281070 1.961864 195 198 201
0.102166 -0.280958 1.961081 195 198 201
0.103982 -0.280934 1.960913 195 198 201
0.105797 -0.280910 1.960745 194 197 200
0.107621 -0.280910 1.960745 193 196 199
0.109383 -0.280750 1.959628 194 197 200
0.111143 -0.280590 1.958513 194 197 200
0.112910 -0.280454 1.957565 194 197 200
0.114721 -0.280430 1.957398 194 197 200
0.116476 -0.280271 1.956285 193 196 199
0.118296 -0.280271 1.956285 193 196 199
0.120048 -0.280111 1.955173 193 196 199
0.121808 -0.279976 1.954229 194 197 200
0.123615 -0.279952 1.954062 194 197 200
0.125362 -0.279793 1.952953 194 197 200
0.127128 -0.279682 1.952177 193 196 197
0.128922 -0.279635 1.951845 194 197 198
0.130727 -0.279611 1.951679 195 198 201
0.132484 -0.279487 1.950815 196 199 202
0.134278 -0.279443 1.950505 196 199 202
0.136031 -0.279318 1.949632 196 199 202
0.137767 -0.279159 1.948528 197 200 203
0.139501 -0.279001 1.947425 197 200 203
0.141232 -0.278843 1.946322 198 201 204
0.143043 -0.278843 1.946322 198 201 204
0.144796 -0.278733 1.945552 198 201 204
0.146573 -0.278670 1.945112 199 202 205
0.148253 -0.278426 1.943408 201 204 207
0.150006 -0.278324 1.942695 201 204 207
0.151813 -0.278324 1.942695 203 206 209
0.153620 -0.278324 1.942695 204 207 210
0.155451 -0.278366 1.942991 204 206 212
0.157159 -0.278190 1.941763 205 207 213
0.158865 -0.278014 1.940536 203 209 211
0.160558 -0.277820 1.939179 203 209 211
0.162290 -0.277696 1.938316 202 208 210
0.164001 -0.277540 1.937224 201 207 209
0.165803 -0.277540 1.937224 199 205 207
0.167511 -0.277384 1.936134 199 205 207
0.169245 -0.277275 1.935372 197 204 206
0.171017 -0.277228 1.935045 196 203 205
0.172879 -0.277326 1.935731 195 202 204
0.174617 -0.277228 1.935045 193 200 202
0.176480 -0.277326 1.935731 192 199 201
0.178348 -0.277431 1.936461 191 198 200
0.180221 -0.277540 1.937224 188 197 201
0.182030 -0.277551 1.937301 187 196 200
0.183965 -0.277751 1.938698 186 195 199
0.185938 -0.278005 1.940470 185 194 198
0.188023 -0.278418 1.943354 179 190 195
0.190314 -0.279128 1.948307 174 185 190
0.192859 -0.280191 1.955729 165 177 183
0.195976 -0.282059 1.968770 153 165 171
0.200646 -0.286106 1.997014 142 158 165
0.206812 -0.292193 2.039499 131 147 154
-0.491936 -0.737904 5.184223 132 158 158
-0.446716 -0.676709 4.754290 132 158 158
-0.414830 -0.634690 4.459082 132 158 158
-0.385636 -0.595982 4.187137 132 158 158
-0.360460 -0.562759 3.953720 130 153 154
-0.333181 -0.525533 3.692186 129 152 153
-0.295768 -0.471380 3.311729 132 153 156
-0.262976 -0.423529 2.975549 136 157 160
-0.235894 -0.383954 2.697512 142 162 164
-0.218582 -0.359603 2.526431 145 165 167
-0.202643 -0.337004 2.367658 149 164 168
-0.190314 -0.319979 2.248044 152 167 171
-0.181155 -0.307963 2.163628 157 168 171
-0.174719 -0.300359 2.110202 160 171 174
-0.170228 -0.295965 2.079333 166 172 177
-0.166941 -0.293587 2.062624 168 174 179
-0.164564 -0.292770 2.056889 169 176 178
-0.162383 -0.292290 2.053512 173 180 182
-0.160219 -0.291828 2.050268 176 182 184
-0.157931 -0.291125 2.045331 177 183 185
-0.155824 -0.290745 2.042659 177 183 183
-0.153664 -0.290254 2.039208 176 182 182
-0.151502 -0.289747 2.035648 178 181 182
-0.149356 -0.289259 2.032220 178 181 182
-0.147365 -0.289063 2.030840 179 182 183
-0.145334 -0.288781 2.028864 180 183 184
-0.143299 -0.288484 2.026772 180 183 184
-0.141272 -0.288195 2.024744 182 185 186
-0.139331 -0.288076 2.023910 183 186 187
-0.137472 -0.288127 2.024267 186 189 190
-0.135533 -0.288008 2.023434 185 188 189
-0.133584 -0.287865 2.022422 188 191 192
-0.131621 -0.287687 2.021174 190 191 193
-0.129615 -0.287408 2.019217 190 191 193
-0.127775 -0.287493 2.019810 188 189 191
-0.125899 -0.287501 2.019869 189 190 192
-0.123871 -0.287155 2.017440 190 191 193
-0.121898 -0.286928 2.015844 190 191 193
-0.119906 -0.286651 2.013897 192 191 193
-0.118033 -0.286651 2.013897 193 192 194
-0.116152 -0.286634 2.013779 192 191 193
-0.114286 -0.286651 2.013897 192 191 193
-0.112366 -0.286534 2.013072 193 192 194
-0.110409 -0.286316 2.011541 193 192 194
-0.108475 -0.286148 2.010366 193 192 194
-0.106542 -0.285981 2.009192 193 192 194
-0.104603 -0.285789 2.007843 193 192 194
-0.102684 -0.285648 2.006847 194 193 195
-0.100817 -0.285648 2.006847 194 193 195
-0.098921 -0.285564 2.006262 195 194 196
-0.097026 -0.285481 2.005677 195 195 195
-0.095105 -0.285315 2.004508 196 196 196
-0.093186 -0.285149 2.003341 197 197 197
-0.091319 -0.285140 2.003282 197 197 197
-0.089406 -0.284983 2.002175 198 198 198
-0.087544 -0.284983 2.002175 199 199 199
-0.085681 -0.284983 2.002175 200 199 201
-0.083818 -0.284983 2.002175 200 199 201
-0.081908 -0.284817 2.001010 200 199 201
-0.080047 -0.284817 2.001010 200 199 201
-0.078185 -0.284817 2.001010 199 198 202
-0.076323 -0.284817 2.001010 199 198 202
-0.074432 -0.284701 2.000195 199 198 202
-0.072554 -0.284635 1.999730 199 198 202
-0.070646 -0.284444 1.998394 199 197 204
-0.068757 -0.284321 1.997524 198 196 203
-0.066874 -0.284213 1.996770 198 197 201
-0.064976 -0.284040 1.995554 199 198 202
-0.063107 -0.283982 1.995149 199 198 202
-0.061253 -0.283991 1.995206 199 198 202
-0.059397 -0.283991 1.995206 196 196 203
-0.057507 -0.283826 1.994050 195 195 202
-0.055652 -0.283826 1.994050 195 195 202
-0.053769 -0.283678 1.993010 194 194 201
-0.051942 -0.283826 1.994050 194 195 199
-0.050087 -0.283826 1.994050 194 195 199
-0.048204 -0.283662 1.992895 195 196 200
-0.046350 -0.283662 1.992895 195 196 200
-0.044470 -0.283497 1.991741 197 196 200
-0.042617 -0.283497 1.991741 198 197 201
-0.040754 -0.283424 1.991222 197 196 200
-0.038889 -0.283333 1.990588 197 196 200
-0.037037 -0.283333 1.990588 198 197 201
-0.035174 -0.283243 1.989955 197 196 200
-0.033314 -0.283169 1.989437 196 195 199
-0.031454 -0.283088 1.988861 198 197 201
-0.029595 -0.283006 1.988287 199 198 202
-0.027746 -0.283006 1.988287 199 198 202
-0.025888 -0.282924 1.987712 199 198 202
-0.024029 -0.282801 1.986851 198 197 201
-0.022171 -0.282679 1.985991 197 196 200
-0.020316 -0.282573 1.985246 197 196 200
-0.018465 -0.282516 1.984845 197 196 200
-0.016618 -0.282500 1.984730 198 197 201
-0.014764 -0.282353 1.983700 198 197 199
-0.012915 -0.282280 1.983185 199 198 200
-0.011069 -0.282247 1.982957 199 198 200
-0.009222 -0.282190 1.982557 200 199 201
-0.007373 -0.282028 1.981415 201 200 202
-0.005530 -0.282028 1.981415 200 199 201
-0.003685 -0.281865 1.980274 200 199 201
-0.001842 -0.281890 1.980445 200 199 201
0.000000 -0.281865 1.980274 199 198 200
0.001841 -0.281703 1.979134 199 198 200
0.003681 -0.281582 1.978281 198 197 199
0.005520 -0.281541 1.977996 197 196 198
0.007356 -0.281379 1.976860 198 197 199
0.009195 -0.281379 1.976860 199 198 200
0.011028 -0.281218 1.975724 196 197 199
0.012866 -0.281218 1.975724 196 197 199
0.014696 -0.281056 1.974590 196 198 198
0.016533 -0.281056 1.974590 197 199 199
0.018362 -0.280943 1.973797 198 199 201
0.020189 -0.280806 1.972835 197 198 200
0.022018 -0.280734 1.972326 198 199 201
0.023847 -0.280662 1.971817 197 198 200
0.025673 -0.280573 1.971195 198 197 199
0.027494 -0.280436 1.970236 198 197 199
0.029324 -0.280412 1.970066 196 195 197
0.031152 -0.280372 1.969784 195 194 196
0.032971 -0.280252 1.968939 194 193 195
0.034803 -0.280252 1.968939 195 194 196
0.036621 -0.280148 1.968206 193 192 196
0.038444 -0.280092 1.967812 192 191 195
0.040275 -0.280092 1.967812 191 190 194
0.042082 -0.279939 1.966743 191 190 194
0.043911 -0.279931 1.966687 191 190 194
0.045740 -0.279931 1.966687 191 190 194
0.047570 -0.279931 1.966687 192 191 195
0.049371 -0.279771 1.965563 193 192 196
0.051200 -0.279771 1.965563 194 193 197
0.052998 -0.279612 1.964441 194 193 197
0.054795 -0.279452 1.963320 192 193 197
0.056621 -0.279452 1.963320 192 193 197
0.058414 -0.279293 1.962200 191 192 196
0.060209 -0.279149 1.961193 190 191 195
0.062065 -0.279293 1.962200 190 191 195
0.063878 -0.279237 1.961808 190 191 195
0.065682 -0.279149 1.961193 190 191 195
0.067522 -0.279213 1.961640 190 191 195
0.069365 -0.279285 1.962144 189 190 194
0.071192 -0.279293 1.962200 190 191 195
0.073018 -0.279293 1.962200 190 191 195
0.074841 -0.279285 1.962144 190 191 195
0.076658 -0.279253 1.961920 191 192 196
0.078494 -0.279293 1.962200 191 192 196
0.080313 -0.279269 1.962032 191 192 194
0.082121 -0.279213 1.961640 191 192 194
0.083944 -0.279205 1.961584 191 192 196
0.085771 -0.279213 1.961640 192 193 197
0.087596 -0.279213 1.961640 192 195 198
0.089414 -0.279189 1.961472 192 195 198
0.091220 -0.279133 1.961081 193 196 199
0.093044 -0.279133 1.961081 193 196 199
0.094869 -0.279133 1.961081 193 196 199
0.096693 -0.279133 1.961081 193 196 199
0.098509 -0.279110 1.960913 192 195 198
0.100293 -0.278998 1.960131 193 196 199
0.102079 -0.278895 1.959405 193 196 199
0.103872 -0.278815 1.958847 192 195 198
0.105695 -0.278815 1.958847 192 195 198
0.107486 -0.278736 1.958290 191 194 197
0.109255 -0.278601 1.957343 191 194 197
0.111032 -0.278490 1.956563 190 193 196
0.112807 -0.278380 1.955784 190 193 196
0.114578 -0.278261 1.954951 190 193 196
0.116364 -0.278182 1.954395 190 193 196
0.118158 -0.278127 1.954007 190 193 196
0.119928 -0.278016 1.953230 190 193 196
0.121697 -0.277906 1.952454 190 193 196
0.123465 -0.277795 1.951679 191 194 197
0.125195 -0.277606 1.950351 191 194 197
0.126984 -0.277551 1.949964 191 194 195
0.128725 -0.277394 1.948859 192 195 196
0.130501 -0.277315 1.948307 192 195 198
0.132280 -0.277245 1.947810 193 196 199
0.134050 -0.277158 1.947204 194 197 200
0.135808 -0.277048 1.946433 194 197 200
0.137553 -0.276915 1.945497 194 197 200
0.139268 -0.276727 1.944177 195 198 201
0.141017 -0.276610 1.943354 196 199 202
0.142825 -0.276610 1.943354 197 200 203
0.144576 -0.276501 1.942585 197 200 203
0.146271 -0.276290 1.941105 198 201 204
0.147956 -0.276064 1.939518 199 202 205
0.149676 -0.275909 1.938426 201 204 207
0.151479 -0.275909 1.938426 201 204 207
0.153239 -0.275831 1.937879 203 206 209
0.155086 -0.275909 1.938426 204 206 212
0.156779 -0.275714 1.937061 204 206 212
0.158514 -0.275598 1.936243 202 208 210
0.160212 -0.275420 1.934990 202 208 210
0.161934 -0.275288 1.934066 202 208 210
0.163683 -0.275203 1.933468 202 208 210
0.165440 -0.275133 1.932979 201 207 209
0.167144 -0.274979 1.931893 200 206 208
0.168894 -0.274902 1.931351 198 205 207
0.170657 -0.274848 1.930971 197 204 206
0.172439 -0.274825 1.930809 196 203 205
0.174235 -0.274825 1.930809 195 202 204
0.176031 -0.274825 1.930809 195 202 204
0.177928 -0.274979 1.931893 194 201 203
0.179760 -0.275033 1.932273 191 200 204
0.181624 -0.275133 1.932979 190 199 203
0.183422 -0.275133 1.932979 189 198 202
0.185325 -0.275288 1.934066 189 198 202
0.187329 -0.275590 1.936189 188 199 204
0.189424 -0.276018 1.939190 183 194 199
0.191563 -0.276501 1.942585 176 188 194
0.194159 -0.277630 1.950517 166 178 184
0.197531 -0.279835 1.966013 154 170 177
0.201130 -0.282320 1.983472 145 161 168
0.206162 -0.286752 2.014606 134 154 162
-0.480676 -0.709348 5.016384 125 151 151
-0.416937 -0.621319 4.393857 122 148 148
-0.388484 -0.584650 4.134541 121 147 147
-0.360600 -0.548112 3.876150 121 147 147
-0.331086 -0.508334 3.594849 121 147 147
-0.308153 -0.477952 3.379993 121 147 147
-0.286698 -0.449259 3.177082 123 149 149
-0.257843 -0.408252 2.887084 129 152 154
-0.236884 -0.379014 2.680319 133 156 158
-0.217643 -0.351933 2.488808 138 159 161
-0.203140 -0.332014 2.347942 141 162 164
-0.192559 -0.318141 2.249839 147 162 166
-0.183971 -0.307292 2.173113 149 164 168
-0.177253 -0.299360 2.117021 154 165 168
-0.172380 -0.294402 2.081963 157 168 171
-0.168699 -0.291388 2.060647 159 168 172
-0.165892 -0.289834 2.049658 161 170 174
-0.163721 -0.289367 2.046353 161 171 172
-0.161578 -0.288939 2.043326 163 173 174
-0.159544 -0.288699 2.041629 167 174 176
-0.157421 -0.288288 2.038724 168 175 177
-0.155392 -0.288044 2.036998 171 177 177
-0.153282 -0.287640 2.034143 172 178 178
-0.151202 -0.287284 2.031620 175 178 179
-0.148995 -0.286674 2.027309 176 179 180
-0.147079 -0.286615 2.026891 176 179 180
-0.145061 -0.286353 2.025042 178 181 182
-0.143125 -0.286251 2.024315 179 182 183
-0.141136 -0.286035 2.022791 180 183 184
-0.139206 -0.285938 2.022101 182 185 186
-0.137303 -0.285891 2.021769 183 186 187
-0.135320 -0.285676 2.020249 187 188 190
-0.133357 -0.285496 2.018980 186 187 189
-0.131425 -0.285379 2.018151 187 188 190
-0.129448 -0.285161 2.016612 188 189 191
-0.127647 -0.285329 2.017795 187 188 190
-0.125775 -0.285340 2.017878 188 189 191
-0.123783 -0.285076 2.016010 188 189 191
-0.121816 -0.284863 2.014498 188 189 191
-0.119857 -0.284661 2.013072 191 190 192
-0.117974 -0.284636 2.012895 191 190 192
-0.116110 -0.284656 2.013036 192 191 193
-0.114253 -0.284696 2.013319 192 191 193
-0.112352 -0.284626 2.012824 192 191 193
-0.110403 -0.284428 2.011424 193 192 194
-0.108452 -0.284220 2.009955 193 192 194
-0.106542 -0.284112 2.009192 193 192 194
-0.104593 -0.283897 2.007667 193 192 194
-0.102684 -0.283781 2.006847 193 192 194
-0.100817 -0.283781 2.006847 193 192 194
-0.098941 -0.283756 2.006671 194 193 195
-0.097026 -0.283615 2.005677 195 195 195
-0.095105 -0.283450 2.004508 195 195 195
-0.093202 -0.283334 2.003691 196 196 196
-0.091322 -0.283285 2.003341 197 197 197
-0.089406 -0.283120 2.002175 196 195 197
-0.087544 -0.283120 2.002175 198 197 199
-0.085681 -0.283120 2.002175 197 198 200
-0.083774 -0.282970 2.001115 197 198 200
-0.081908 -0.282955 2.001010 197 198 200
-0.080047 -0.282955 2.001010 197 198 200
-0.078185 -0.282955 2.001010 196 197 201
-0.076302 -0.282875 2.000440 196 197 201
-0.074432 -0.282840 2.000195 198 197 201
-0.072527 -0.282671 1.998998 197 196 200
-0.070642 -0.282569 1.998278 197 195 202
-0.068757 -0.282462 1.997524 197 195 202
-0.066868 -0.282333 1.996608 197 195 202
-0.064976 -0.282184 1.995554 196 194 201
-0.063105 -0.282118 1.995091 196 194 201
-0.061253 -0.282135 1.995206 196 194 201
-0.059375 -0.282032 1.994478 192 194 200
-0.057507 -0.281971 1.994050 192 194 200
-0.055652 -0.281971 1.994050 192 192 199
-0.053767 -0.281813 1.992929 192 192 199
-0.051921 -0.281857 1.993241 192 192 199
-0.050087 -0.281971 1.994050 193 193 200
-0.048204 -0.281808 1.992895 193 194 198
-0.046326 -0.281659 1.991844 192 193 197
-0.044470 -0.281644 1.991741 195 194 198
-0.042600 -0.281530 1.990933 194 193 197
-0.040741 -0.281486 1.990622 192 191 195
-0.038871 -0.281353 1.989678 193 192 196
-0.037016 -0.281319 1.989437 195 194 198
-0.035163 -0.281307 1.989356 194 193 197
-0.033295 -0.281156 1.988287 194 193 197
-0.031445 -0.281156 1.988287 194 193 197
-0.029583 -0.281042 1.987482 194 193 197
-0.027730 -0.280994 1.987138 194 193 197
-0.025881 -0.280994 1.987138 195 194 198
-0.024018 -0.280831 1.985991 194 193 197
-0.022159 -0.280686 1.984959 192 193 197
-0.020309 -0.280635 1.984604 192 193 197
-0.018455 -0.280522 1.983803 192 193 197
-0.016609 -0.280507 1.983700 193 194 198
-0.014761 -0.280451 1.983300 193 194 196
-0.012911 -0.280351 1.982591 195 196 198
-0.011066 -0.280346 1.982557 196 197 199
-0.009217 -0.280199 1.981517 197 198 200
-0.007373 -0.280184 1.981415 198 199 201
-0.005530 -0.280184 1.981415 197 198 200
-0.003685 -0.280023 1.980274 196 197 199
-0.001842 -0.280023 1.980274 197 198 200
0.000000 -0.279910 1.979476 198 199 201
0.001841 -0.279851 1.979055 197 198 200
0.003680 -0.279701 1.977996 197 198 200
0.005518 -0.279600 1.977280 195 196 198
0.007356 -0.279540 1.976860 195 196 198
0.009193 -0.279462 1.976303 196 197 199
0.011028 -0.279364 1.975611 195 196 198
0.012859 -0.279219 1.974590 195 196 198
0.014696 -0.279219 1.974590 195 196 198
0.016523 -0.279059 1.973457 195 196 198
0.018359 -0.279059 1.973457 196 197 199
0.020183 -0.278899 1.972326 197 198 200
0.022018 -0.278899 1.972326 197 198 200
0.023840 -0.278744 1.971229 196 197 199
0.025670 -0.278706 1.970958 196 197 199
0.027491 -0.278580 1.970066 195 196 198
0.029324 -0.278580 1.970066 193 194 196
0.031157 -0.278580 1.970066 193 194 196
0.032971 -0.278425 1.968972 192 193 197
0.034803 -0.278420 1.968939 192 193 197
0.036618 -0.278294 1.968049 190 191 195
0.038444 -0.278261 1.967812 189 190 194
0.040275 -0.278261 1.967812 189 190 194
0.042104 -0.278250 1.967733 189 190 194
0.043911 -0.278102 1.966687 187 188 192
0.045740 -0.278102 1.966687 188 189 193
0.047570 -0.278102 1.966687 188 189 193
0.049371 -0.277943 1.965563 188 189 193
0.051200 -0.277943 1.965563 190 191 195
0.052998 -0.277784 1.964441 189 190 194
0.054804 -0.277673 1.963656 189 190 194
0.056621 -0.277626 1.963320 190 191 195
0.058447 -0.277626 1.963320 189 190 194
0.060240 -0.277467 1.962200 188 189 193
0.062065 -0.277467 1.962200 187 188 192
0.063865 -0.277356 1.961416 188 189 193
0.065678 -0.277309 1.961081 188 189 193
0.067503 -0.277309 1.961081 188 189 193
0.069338 -0.277352 1.961383 187 188 190
0.071192 -0.277467 1.962200 188 189 191
0.072976 -0.277309 1.961081 188 189 191
0.074800 -0.277309 1.961081 189 190 192
0.076625 -0.277309 1.961081 189 190 192
0.078449 -0.277309 1.961081 189 190 192
0.080274 -0.277309 1.961081 189 190 192
0.082098 -0.277309 1.961081 189 190 192
0.083922 -0.277309 1.961081 190 191 193
0.085747 -0.277309 1.961081 190 191 193
0.087571 -0.277309 1.961081 190 193 196
0.089360 -0.277198 1.960298 190 193 196
0.091184 -0.277198 1.960298 190 193 196
0.092991 -0.277151 1.959963 191 194 197
0.094831 -0.277198 1.960298 191 194 197
0.096640 -0.277156 1.959997 191 194 197
0.098422 -0.277040 1.959182 190 193 196
0.100228 -0.276993 1.958847 190 193 196
0.102009 -0.276883 1.958067 190 193 196
0.103813 -0.276836 1.957732 190 193 196
0.105593 -0.276725 1.956953 190 193 196
0.107395 -0.276678 1.956619 190 193 196
0.109159 -0.276535 1.955606 188 191 194
0.110926 -0.276406 1.954695 189 192 195
0.112682 -0.276254 1.953618 189 192 195
0.114480 -0.276207 1.953286 188 191 194
0.116245 -0.276083 1.952410 187 190 193
0.118015 -0.275973 1.951634 187 190 193
0.119796 -0.275893 1.951070 187 190 193
0.121552 -0.275760 1.950130 187 190 193
0.123312 -0.275638 1.949267 188 191 194
0.125050 -0.275471 1.948086 189 192 195
0.126840 -0.275425 1.947755 189 192 193
0.128601 -0.275316 1.946984 190 193 194
0.130339 -0.275160 1.945882 190 193 196
0.132129 -0.275118 1.945585 191 194 197
0.133884 -0.275004 1.944782 191 194 197
0.135616 -0.274849 1.943683 192 195 198
0.137347 -0.274694 1.942585 192 195 198
0.139075 -0.274539 1.941489 193 196 199
0.140808 -0.274395 1.940470 193 196 199
0.142664 -0.274492 1.941160 195 198 201
0.144412 -0.274384 1.940394 196 199 202
0.146105 -0.274172 1.938895 196 199 202
0.147760 -0.273897 1.936952 198 201 204
0.149468 -0.273724 1.935731 199 202 205
0.151207 -0.273612 1.934936 200 203 206
0.153007 -0.273612 1.934936 201 204 207
0.154804 -0.273607 1.934903 200 205 210
0.156519 -0.273458 1.933848 202 207 212
0.158229 -0.273304 1.932762 202 208 210
0.159918 -0.273119 1.931448 202 208 210
0.161643 -0.272998 1.930592 202 208 210
0.163439 -0.272998 1.930592 202 208 210
0.165175 -0.272898 1.929888 202 208 208
0.166938 -0.272845 1.929509 201 207 207
0.168733 -0.272845 1.929509 200 206 206
0.170528 -0.272845 1.929509 199 205 205
0.172287 -0.272788 1.929109 198 204 206
0.174118 -0.272845 1.929509 197 203 205
0.175913 -0.272845 1.929509 195 202 204
0.177787 -0.272966 1.930365 195 202 204
0.179595 -0.272984 1.930495 195 201 206
0.181400 -0.272998 1.930592 194 200 205
0.183196 -0.272998 1.930592 193 199 204
0.184919 -0.272890 1.929834 193 199 204
0.186924 -0.273197 1.932002 192 201 207
0.188902 -0.273458 1.933848 190 199 205
0.190862 -0.273689 1.935480 185 194 201
0.193124 -0.274345 1.940120 180 189 196
0.195715 -0.275451 1.947943 170 181 187
0.198372 -0.276629 1.956274 161 172 178
0.201641 -0.278631 1.970428 149 163 173
0.206298 -0.282499 1.997780 139 153 163
-0.466112 -0.676759 4.817616 123 149 149
-0.401315 -0.588336 4.188161 119 145 145
-0.360488 -0.533663 3.798964 117 143 143
-0.330896 -0.494706 3.521644 116 142 142
-0.308991 -0.466576 3.321394 115 141 141
-0.285949 -0.436144 3.104761 115 141 141
-0.264586 -0.407678 2.902119 115 141 141
-0.247374 -0.385087 2.741305 119 145 145
-0.232073 -0.365032 2.598535 125 148 150
-0.218825 -0.347816 2.475984 129 152 154
-0.204988 -0.329290 2.344101 135 156 158
-0.193756 -0.314594 2.239485 138 159 161
-0.185367 -0.304244 2.165807 145 160 164
-0.178764 -0.296631 2.111614 147 162 166
-0.173835 -0.291657 2.076207 152 163 166
-0.170364 -0.289045 2.057615 153 164 167
-0.167509 -0.287431 2.046122 155 164 168
-0.164890 -0.286188 2.037276 156 165 169
-0.162840 -0.285917 2.035347 157 167 168
-0.160880 -0.285799 2.034504 158 168 169
-0.158969 -0.285765 2.034263 163 170 172
-0.156988 -0.285605 2.033121 165 172 174
-0.155001 -0.285429 2.031872 169 175 175
-0.152911 -0.285057 2.029223 171 177 177
-0.150834 -0.284699 2.026676 174 177 178
-0.148714 -0.284250 2.023481 175 178 179
-0.146832 -0.284252 2.023493 177 180 181
-0.144872 -0.284100 2.022410 178 181 182
-0.142952 -0.284023 2.021864 179 182 183
-0.140961 -0.283801 2.020284 179 182 183
-0.139049 -0.283735 2.019810 181 184 185
-0.137097 -0.283585 2.018743 182 185 186
-0.135140 -0.283418 2.017559 184 185 187
-0.133182 -0.283247 2.016340 186 187 189
-0.131253 -0.283131 2.015514 186 187 189
-0.129350 -0.283071 2.015089 187 188 190
-0.127483 -0.283086 2.015195 187 188 190
-0.125675 -0.283237 2.016270 187 188 190
-0.123658 -0.282916 2.013979 188 189 191
-0.121716 -0.282755 2.012836 188 189 191
-0.119773 -0.282590 2.011659 190 189 191
-0.117898 -0.282581 2.011600 191 190 192
-0.116023 -0.282573 2.011541 191 190 192
-0.114177 -0.282634 2.011977 192 191 193
-0.112281 -0.282573 2.011541 192 191 193
-0.110339 -0.282393 2.010260 192 191 193
-0.108411 -0.282243 2.009192 193 192 194
-0.106480 -0.282078 2.008018 193 192 194
-0.104555 -0.281925 2.006929 193 192 194
-0.102684 -0.281914 2.006847 193 192 194
-0.100817 -0.281914 2.006847 193 192 194
-0.098895 -0.281758 2.005735 193 192 194
-0.096975 -0.281601 2.004625 194 194 194
-0.095105 -0.281585 2.004508 195 195 195
-0.093187 -0.281426 2.003376 194 194 194
-0.091317 -0.281406 2.003236 194 194 194
-0.089406 -0.281257 2.002175 195 194 196
-0.087544 -0.281257 2.002175 196 195 197
-0.085668 -0.281213 2.001860 195 196 198
-0.083739 -0.280991 2.000277 196 197 199
-0.081860 -0.280930 1.999846 195 196 198
-0.080002 -0.280938 1.999905 195 196 198
-0.078144 -0.280945 1.999951 195 196 200
-0.076295 -0.280991 2.000277 195 196 200
-0.074432 -0.280979 2.000195 196 195 199
-0.072512 -0.280752 1.998580 195 194 198
-0.070616 -0.280604 1.997524 194 192 199
-0.068757 -0.280604 1.997524 195 193 200
-0.066860 -0.280441 1.996364 195 193 200
-0.064965 -0.280278 1.995206 195 193 200
-0.063076 -0.280131 1.994154 193 191 198
-0.061219 -0.280124 1.994108 193 191 198
-0.059362 -0.280116 1.994050 189 191 197
-0.057476 -0.279965 1.992975 189 191 197
-0.055630 -0.280002 1.993241 191 191 198
-0.053766 -0.279954 1.992895 191 191 198
-0.051912 -0.279954 1.992895 190 190 197
-0.050058 -0.279954 1.992895 191 191 198
-0.048178 -0.279803 1.991822 191 192 196
-0.046306 -0.279690 1.991014 191 192 196
-0.044444 -0.279630 1.990588 193 192 196
-0.042593 -0.279630 1.990588 192 191 195
-0.040741 -0.279630 1.990588 189 188 192
-0.038866 -0.279468 1.989437 190 189 193
-0.037010 -0.279424 1.989126 192 191 195
-0.035145 -0.279306 1.988287 192 191 195
-0.033277 -0.279161 1.987253 191 190 194
-0.031427 -0.279145 1.987138 190 189 193
-0.029578 -0.279145 1.987138 190 189 193
-0.027730 -0.279145 1.987138 190 189 193
-0.025868 -0.279000 1.986105 190 189 193
-0.024012 -0.278903 1.985418 190 189 193
-0.022148 -0.278693 1.983917 188 189 193
-0.020300 -0.278662 1.983700 188 189 193
-0.018454 -0.278662 1.983700 189 190 194
-0.016608 -0.278648 1.983597 189 190 194
-0.014755 -0.278501 1.982557 189 190 192
-0.012904 -0.278357 1.981529 191 192 194
-0.011060 -0.278341 1.981415 192 193 195
-0.009217 -0.278341 1.981415 193 194 196
-0.007370 -0.278211 1.980491 194 195 197
-0.005527 -0.278189 1.980331 195 196 198
-0.003685 -0.278181 1.980274 194 195 197
-0.001842 -0.278181 1.980274 194 195 197
0.000000 -0.278025 1.979169 194 195 197
0.001841 -0.278005 1.979021 193 194 196
0.003680 -0.277861 1.977996 193 194 196
0.005517 -0.277703 1.976871 193 194 196
0.007356 -0.277701 1.976860 192 193 195
0.009190 -0.277546 1.975758 192 193 195
0.011028 -0.277526 1.975611 192 193 195
0.012859 -0.277382 1.974590 192 193 195
0.014688 -0.277239 1.973570 192 193 195
0.016521 -0.277180 1.973152 191 192 194
0.018349 -0.277069 1.972360 192 193 195
0.020183 -0.277064 1.972326 194 195 197
0.022013 -0.276993 1.971817 194 195 197
0.023840 -0.276905 1.971195 194 195 197
0.025669 -0.276858 1.970857 194 195 197
0.027491 -0.276747 1.970066 194 195 197
0.029324 -0.276747 1.970066 192 193 195
0.031148 -0.276668 1.969502 192 193 195
0.032971 -0.276588 1.968939 191 192 196
0.034803 -0.276588 1.968939 189 190 194
0.036613 -0.276430 1.967812 188 189 193
0.038444 -0.276430 1.967812 188 189 193
0.040275 -0.276430 1.967812 187 188 192
0.042105 -0.276430 1.967812 187 188 192
0.043927 -0.276372 1.967396 186 187 191
0.045740 -0.276272 1.966687 187 188 192
0.047570 -0.276272 1.966687 186 187 191
0.049384 -0.276185 1.966069 187 188 192
0.051200 -0.276114 1.965563 187 188 192
0.052998 -0.275957 1.964441 186 187 191
0.054826 -0.275957 1.964441 188 189 193
0.056621 -0.275799 1.963320 188 189 193
0.058447 -0.275799 1.963320 187 188 192
0.060240 -0.275642 1.962200 187 188 192
0.062065 -0.275642 1.962200 187 188 192
0.063854 -0.275485 1.961081 186 187 191
0.065678 -0.275485 1.961081 185 186 190
0.067503 -0.275485 1.961081 184 185 189
0.069327 -0.275485 1.961081 185 186 188
0.071153 -0.275489 1.961114 185 186 188
0.072976 -0.275485 1.961081 186 187 189
0.074800 -0.275485 1.961081 187 188 190
0.076586 -0.275343 1.960075 186 187 189
0.078445 -0.275470 1.960980 187 188 190
0.080232 -0.275343 1.960075 187 188 190
0.082056 -0.275343 1.960075 187 188 190
0.083879 -0.275342 1.960064 188 189 191
0.085700 -0.275335 1.960019 188 189 191
0.087481 -0.275201 1.959059 188 191 194
0.089297 -0.275182 1.958926 188 191 194
0.091118 -0.275176 1.958881 188 191 194
0.092938 -0.275171 1.958847 189 192 195
0.094761 -0.275171 1.958847 189 192 195
0.096583 -0.275171 1.958847 189 192 195
0.098353 -0.275025 1.957810 189 192 195
0.100119 -0.274873 1.956730 188 191 194
0.101929 -0.274844 1.956519 188 191 194
0.103701 -0.274717 1.955618 187 190 193
0.105466 -0.274575 1.954606 186 189 192
0.107279 -0.274561 1.954507 187 190 193
0.109052 -0.274447 1.953696 187 190 193
0.110789 -0.274248 1.952277 187 190 193
0.112542 -0.274094 1.951181 186 189 192
0.114292 -0.273938 1.950074 185 188 191
0.116082 -0.273881 1.949665 184 187 190
0.117854 -0.273783 1.948969 181 184 187
0.119599 -0.273628 1.947866 181 184 187
0.121377 -0.273551 1.947314 183 186 189
0.123154 -0.273473 1.946763 183 186 189
0.124892 -0.273314 1.945629 183 186 189
0.126632 -0.273164 1.944562 184 187 188
0.128369 -0.273010 1.943463 184 187 188
0.130177 -0.273010 1.943463 185 188 191
0.131917 -0.272869 1.942465 186 189 192
0.133642 -0.272702 1.941270 187 190 193
0.135392 -0.272589 1.940470 187 190 193
0.137099 -0.272394 1.939081 188 191 194
0.138864 -0.272317 1.938535 189 192 195
0.140628 -0.272241 1.937989 190 193 196
0.142431 -0.272241 1.937989 191 194 197
0.144177 -0.272133 1.937224 191 194 197
0.145797 -0.271795 1.934816 193 196 199
0.147465 -0.271552 1.933087 195 198 201
0.149222 -0.271476 1.932545 197 200 203
0.150935 -0.271324 1.931459 198 201 204
0.152732 -0.271324 1.931459 199 202 205
0.154521 -0.271310 1.931362 198 203 208
0.156198 -0.271103 1.929888 199 204 209
0.157865 -0.270882 1.928319 201 207 209
0.159567 -0.270726 1.927206 202 208 210
0.161354 -0.270715 1.927131 202 208 210
0.163055 -0.270564 1.926052 202 208 210
0.164851 -0.270571 1.926106 201 207 207
0.166639 -0.270564 1.926052 200 206 206
0.168430 -0.270564 1.926052 199 205 205
0.170222 -0.270564 1.926052 199 205 205
0.172014 -0.270564 1.926052 198 204 206
0.173806 -0.270564 1.926052 198 204 206
0.175686 -0.270700 1.927023 196 203 205
0.177489 -0.270715 1.927131 197 204 206
0.179282 -0.270715 1.927131 197 203 208
0.181075 -0.270715 1.927131 197 203 208
0.182867 -0.270715 1.927131 196 202 207
0.184567 -0.270579 1.926160 196 202 207
0.186495 -0.270776 1.927563 196 205 211
0.188457 -0.271019 1.929293 194 203 209
0.190273 -0.271050 1.929509 193 202 209
0.192230 -0.271278 1.931134 188 197 204
0.194407 -0.271810 1.934925 180 191 197
0.196758 -0.272572 1.940350 174 185 191
0.199196 -0.273442 1.946543 165 179 189
0.202222 -0.275094 1.958302 156 170 180
0.206007 -0.277741 1.977144 143 161 175
0.211343 -0.282415 2.010413 129 147 161
0.219309 -0.290488 2.067884 113 133 153
-0.471347 -0.673353 4.825325 120 147 148
-0.408852 -0.589690 4.225788 118 144 145
-0.353771 -0.515201 3.691990 113 139 140
-0.316322 -0.465179 3.333526 111 137 138
-0.291171 -0.432432 3.098855 110 136 137
-0.271933 -0.407899 2.923055 109 136 137
-0.254732 -0.385957 2.765815 108 135 136
-0.241231 -0.369231 2.645950 108 135 136
-0.229922 -0.355550 2.547913 112 139 140
-0.219125 -0.342382 2.453552 118 144 145
-0.208438 -0.329112 2.358454 124 150 151
-0.196307 -0.313256 2.244832 132 153 156
-0.186659 -0.301063 2.157453 136 157 160
-0.179795 -0.293144 2.100704 141 158 161
-0.174919 -0.288328 2.066192 143 160 163
-0.171300 -0.285500 2.045927 148 160 163
-0.168770 -0.284444 2.038362 149 161 164
-0.166307 -0.283478 2.031440 151 162 165
-0.164045 -0.282835 2.026831 153 164 167
-0.162054 -0.282652 2.025519 155 165 166
-0.160167 -0.282647 2.025483 155 165 166
-0.158285 -0.282652 2.025519 160 167 169
-0.156396 -0.282644 2.025459 163 170 172
-0.154434 -0.282501 2.024434 165 172 174
-0.152426 -0.282270 2.022779 168 175 177
-0.150338 -0.281884 2.020011 171 177 177
-0.148339 -0.281657 2.018388 173 179 179
-0.146419 -0.281574 2.017796 176 179 180
-0.144423 -0.281343 2.016140 178 181 182
-0.142539 -0.281327 2.016021 178 181 182
-0.140663 -0.281327 2.016021 179 182 183
-0.138780 -0.281310 2.015903 180 183 184
-0.136836 -0.281170 2.014900 182 185 186
-0.134887 -0.281014 2.013779 183 186 187
-0.132982 -0.280948 2.013307 184 187 188
-0.131058 -0.280838 2.012518 185 188 189
-0.129122 -0.280700 2.011530 186 189 190
-0.127315 -0.280841 2.012542 187 188 190
-0.125446 -0.280850 2.012601 187 188 190
-0.123499 -0.280680 2.011389 187 188 190
-0.121559 -0.280521 2.010248 188 189 191
-0.119619 -0.280357 2.009074 190 189 191
-0.117747 -0.280349 2.009016 190 189 191
-0.115880 -0.280356 2.009062 191 190 192
-0.114030 -0.280402 2.009391 192 191 193
-0.112143 -0.280357 2.009074 193 192 194
-0.110210 -0.280194 2.007901 193 192 194
-0.108278 -0.280030 2.006730 192 191 193
-0.106349 -0.279867 2.005560 193 192 194
-0.104484 -0.279867 2.005560 192 191 193
-0.102618 -0.279867 2.005560 193 192 194
-0.100699 -0.279720 2.004508 193 192 194
-0.098829 -0.279704 2.004391 193 192 194
-0.096908 -0.279541 2.003224 191 193 193
-0.094993 -0.279390 2.002140 191 193 193
-0.093126 -0.279378 2.002058 192 193 195
-0.091211 -0.279216 2.000893 191 192 194
-0.089326 -0.279143 2.000370 191 192 194
-0.087437 -0.279055 1.999742 193 194 196
-0.085576 -0.279054 1.999730 194 195 197
-0.083685 -0.278951 1.998998 194 195 197
-0.081808 -0.278891 1.998568 193 194 198
-0.079949 -0.278891 1.998568 192 193 197
-0.078090 -0.278891 1.998568 193 194 198
-0.076230 -0.278891 1.998568 193 194 198
-0.074344 -0.278789 1.997837 192 193 197
-0.072465 -0.278713 1.997292 191 192 196
-0.070570 -0.278568 1.996248 190 190 197
-0.068677 -0.278422 1.995206 189 189 196
-0.066779 -0.278245 1.993934 189 189 196
-0.064900 -0.278143 1.993207 191 191 198
-0.063032 -0.278084 1.992779 189 189 196
-0.061178 -0.278084 1.992779 188 188 195
-0.059324 -0.278084 1.992779 187 189 195
-0.057441 -0.277939 1.991741 187 189 195
-0.055596 -0.277982 1.992052 187 189 195
-0.053732 -0.277923 1.991625 188 190 196
-0.051879 -0.277923 1.991625 186 188 194
-0.050026 -0.277923 1.991625 186 188 194
-0.048145 -0.277762 1.990473 186 188 194
-0.046277 -0.277660 1.989747 186 188 194
-0.044416 -0.277601 1.989322 187 188 192
-0.042554 -0.277529 1.988804 187 188 192
-0.040694 -0.277457 1.988287 185 186 190
-0.038842 -0.277441 1.988172 185 186 190
-0.036971 -0.277280 1.987023 185 185 192
-0.035122 -0.277280 1.987023 185 185 192
-0.033256 -0.277136 1.985991 184 187 190
-0.031409 -0.277136 1.985991 183 186 189
-0.029559 -0.277120 1.985876 183 186 189
-0.027702 -0.277020 1.985154 183 186 189
-0.025850 -0.276960 1.984730 183 186 189
-0.023990 -0.276809 1.983643 182 185 188
-0.022133 -0.276657 1.982557 184 185 189
-0.020287 -0.276641 1.982442 184 185 189
-0.018436 -0.276541 1.981723 185 186 190
-0.016589 -0.276482 1.981300 185 186 190
-0.014746 -0.276482 1.981300 186 187 189
-0.012895 -0.276324 1.980171 185 186 188
-0.011053 -0.276323 1.980160 185 186 188
-0.009207 -0.276222 1.979442 187 188 190
-0.007365 -0.276179 1.979134 188 189 191
-0.005523 -0.276172 1.979077 189 190 192
-0.003682 -0.276164 1.979021 189 190 192
-0.001841 -0.276164 1.979021 189 190 192
0.000000 -0.276010 1.977917 189 190 192
0.001839 -0.275862 1.976860 189 190 192
0.003678 -0.275846 1.976746 188 189 191
0.005514 -0.275718 1.975826 189 190 192
0.007352 -0.275688 1.975611 187 188 190
0.009184 -0.275534 1.974511 187 188 190
0.011015 -0.275386 1.973446 187 190 191
0.012851 -0.275371 1.973344 187 190 191
0.014680 -0.275244 1.972427 186 189 190
0.016510 -0.275171 1.971907 187 190 191
0.018337 -0.275061 1.971116 188 191 192
0.020171 -0.275056 1.971082 189 192 193
0.021999 -0.274985 1.970574 190 193 194
0.023825 -0.274898 1.969954 191 194 195
0.025657 -0.274898 1.969954 192 193 197
0.027475 -0.274746 1.968860 192 193 197
0.029306 -0.274741 1.968826 191 192 196
0.031121 -0.274600 1.967812 190 191 195
0.032950 -0.274584 1.967700 189 190 194
0.034781 -0.274584 1.967700 188 189 193
0.036605 -0.274537 1.967362 187 188 192
0.038422 -0.274443 1.966687 186 187 191
0.040249 -0.274427 1.966575 186 187 191
0.042079 -0.274427 1.966575 185 186 190
0.043886 -0.274286 1.965563 186 187 191
0.045714 -0.274286 1.965563 185 186 190
0.047543 -0.274284 1.965552 185 186 190
0.049369 -0.274270 1.965451 185 186 190
0.051168 -0.274113 1.964329 185 186 190
0.052968 -0.273973 1.963320 185 186 190
0.054792 -0.273962 1.963241 185 186 190
0.056588 -0.273815 1.962188 186 187 191
0.058396 -0.273730 1.961584 184 185 189
0.060202 -0.273646 1.960980 184 185 189
0.062026 -0.273645 1.960969 183 186 189
0.063827 -0.273546 1.960265 183 186 189
0.065637 -0.273489 1.959852 182 185 186
0.067461 -0.273489 1.959852 182 185 186
0.069284 -0.273489 1.959852 181 184 185
0.071107 -0.273489 1.959852 181 184 185
0.072930 -0.273489 1.959852 181 184 185
0.074711 -0.273333 1.958736 181 184 185
0.076533 -0.273333 1.958736 182 185 186
0.078355 -0.273333 1.958736 183 186 187
0.080178 -0.273333 1.958736 183 186 187
0.082000 -0.273333 1.958736 183 186 187
0.083813 -0.273303 1.958524 184 187 188
0.085596 -0.273177 1.957621 184 187 188
0.087417 -0.273177 1.957621 183 189 191
0.089224 -0.273135 1.957320 184 190 192
0.091013 -0.273038 1.956619 186 189 192
0.092827 -0.273022 1.956507 186 189 192
0.094648 -0.273022 1.956507 183 189 191
0.096468 -0.273022 1.956507 184 190 192
0.098232 -0.272867 1.955395 186 189 192
0.099994 -0.272712 1.954284 187 190 193
0.101807 -0.272696 1.954173 185 191 193
0.103572 -0.272557 1.953175 184 190 192
0.105329 -0.272402 1.952066 183 189 191
0.107084 -0.272248 1.950959 184 190 192
0.108899 -0.272248 1.950959 184 190 192
0.110645 -0.272078 1.949742 184 190 192
0.112373 -0.271870 1.948252 183 189 191
0.114150 -0.271785 1.947645 182 188 190
0.115896 -0.271631 1.946543 181 187 189
0.117660 -0.271524 1.945772 179 185 187
0.119450 -0.271476 1.945431 179 185 187
0.121157 -0.271248 1.943793 179 185 187
0.122925 -0.271157 1.943145 179 185 187
0.124647 -0.270972 1.941818 179 185 187
0.126404 -0.270865 1.941051 178 184 186
0.128137 -0.270712 1.939956 179 185 187
0.129902 -0.270628 1.939354 180 186 188
0.131672 -0.270560 1.938862 180 186 188
0.133401 -0.270407 1.937770 181 186 191
0.135148 -0.270296 1.936973 181 186 191
0.136852 -0.270103 1.935589 182 188 190
0.138614 -0.270027 1.935045 183 189 191
0.140375 -0.269951 1.934501 184 190 192
0.142174 -0.269951 1.934501 185 191 193
0.143917 -0.269845 1.933739 185 191 193
0.145520 -0.269481 1.931134 186 192 194
0.147201 -0.269270 1.929617 189 195 197
0.148954 -0.269194 1.929076 190 196 198
0.150664 -0.269043 1.927995 191 197 199
0.152395 -0.268933 1.927206 192 198 200
0.154235 -0.269015 1.927790 195 200 205
0.155910 -0.268810 1.926321 196 201 206
0.157582 -0.268605 1.924855 196 202 204
0.159273 -0.268437 1.923650 196 202 204
0.160999 -0.268332 1.922897 196 202 204
0.162763 -0.268291 1.922607 198 204 206
0.164552 -0.268291 1.922607 198 203 208
0.166341 -0.268291 1.922607 197 202 207
0.168129 -0.268291 1.922607 197 202 207
0.169918 -0.268291 1.922607 198 203 208
0.171706 -0.268291 1.922607 199 204 209
0.173495 -0.268291 1.922607 198 203 208
0.175372 -0.268426 1.923574 198 204 206
0.177198 -0.268482 1.923973 199 205 207
0.179051 -0.268577 1.924651 198 203 208
0.180751 -0.268441 1.923682 199 204 209
0.182540 -0.268441 1.923682 199 204 209
0.184330 -0.268441 1.923682 200 205 210
0.186147 -0.268482 1.923973 198 204 211
0.188004 -0.268577 1.924651 198 204 211
0.189795 -0.268578 1.924661 197 203 210
0.191697 -0.268734 1.925782 196 202 209
0.193700 -0.269028 1.927887 189 198 205
0.195820 -0.269477 1.931102 184 193 200
0.198031 -0.270042 1.935154 179 187 197
0.200565 -0.271033 1.942257 174 182 192
0.203186 -0.272124 1.950074 163 177 189
0.206264 -0.273802 1.962099 154 168 180
0.210010 -0.276329 1.980206 139 154 171
0.215481 -0.281062 2.014122 126 141 158
-0.386793 -0.548878 3.959718 113 140 141
-0.338799 -0.485395 3.501740 110 136 137
-0.300086 -0.434105 3.131726 106 132 133
-0.273314 -0.399252 2.880291 103 129 130
-0.254261 -0.375099 2.706040 103 129 130
-0.242580 -0.361445 2.607538 103 130 131
-0.234335 -0.352686 2.544351 103 130 131
-0.225263 -0.342492 2.470807 102 129 130
-0.217754 -0.334488 2.413069 106 133 134
-0.210368 -0.326508 2.355498 113 139 140
-0.200464 -0.314412 2.268236 120 146 147
-0.189961 -0.301109 2.172262 128 149 152
-0.181851 -0.291353 2.101885 132 153 156
-0.176630 -0.286064 2.063725 139 156 159
-0.172921 -0.283134 2.042586 141 158 161
-0.170093 -0.281599 2.031512 146 158 161
-0.167848 -0.281004 2.027226 148 160 163
-0.165520 -0.280256 2.021828 150 161 164
-0.163361 -0.279779 2.018388 151 162 165
-0.161445 -0.279714 2.017914 154 164 165
-0.159549 -0.279679 2.017665 155 165 166
-0.157691 -0.279714 2.017914 160 167 169
-0.155768 -0.279632 2.017322 163 170 172
-0.153783 -0.279435 2.015903 165 172 174
-0.151811 -0.279257 2.014616 168 175 177
-0.149857 -0.279108 2.013543 172 178 178
-0.147891 -0.278933 2.012283 174 180 180
-0.145952 -0.278806 2.011365 177 180 181
-0.144015 -0.278679 2.010448 178 181 182
-0.142097 -0.278584 2.009767 179 182 183
-0.140187 -0.278505 2.009192 180 183 184
-0.138390 -0.278651 2.010248 182 185 186
-0.136477 -0.278562 2.009602 183 186 187
-0.134558 -0.278461 2.008875 185 188 189
-0.132626 -0.278327 2.007913 185 188 189
-0.130742 -0.278293 2.007667 185 188 189
-0.128874 -0.278293 2.007667 185 188 189
-0.127055 -0.278399 2.008429 187 188 190
-0.125212 -0.278456 2.008839 188 189 191
-0.123221 -0.278180 2.006847 188 189 191
-0.121332 -0.278131 2.006496 189 190 192
