ply
format ascii 1.0
element vertex 1196
property float x
property float y
property float z
property uchar red
property uchar green
property uchar blue
end_header
-0.841057 0.057128 1.771349 194 182 177
-0.838511 0.057171 1.772676 195 183 178
-0.835750 0.057200 1.773556 196 184 179
-0.833358 0.057254 1.775231 196 184 179
-0.830669 0.057287 1.776282 197 185 180
-0.828149 0.057333 1.777705 198 186 181
-0.825527 0.057373 1.778918 200 188 183
-0.823069 0.057423 1.780496 200 187 182
-0.820718 0.057482 1.782318 199 186 181
-0.818010 0.057516 1.783376 198 186 181
-0.815270 0.057548 1.784374 200 188 183
-0.812812 0.057601 1.785998 202 190 185
-0.809661 0.057604 1.786105 207 195 190
-0.807167 0.057655 1.787670 209 197 192
-0.804527 0.057695 1.788923 207 195 190
-0.801688 0.057722 1.789739 204 192 187
-0.799089 0.057766 1.791103 198 186 181
-0.796128 0.057783 1.791660 195 182 177
-0.793176 0.057802 1.792244 191 178 173
-0.790794 0.057863 1.794126 189 176 171
-0.788217 0.057910 1.795578 184 171 166
-0.785659 0.057958 1.797086 182 166 162
-0.782944 0.057996 1.798244 178 162 158
-0.780578 0.058060 1.800220 176 163 158
-0.778011 0.058109 1.801745 175 162 157
-0.775593 0.058169 1.803629 172 161 153
-0.772564 0.058185 1.804103 171 160 152
-0.770071 0.058241 1.805835 171 159 149
-0.767328 0.058278 1.806996 169 157 147
-0.764407 0.058302 1.807746 167 155 150
-0.761600 0.058335 1.808771 166 154 149
-0.759047 0.058388 1.810412 162 155 148
-0.756187 0.058418 1.811330 160 153 146
-0.753296 0.058445 1.812185 160 154 144
-0.750571 0.058486 1.813445 159 153 143
-0.747588 0.058507 1.814090 157 151 141
-0.744753 0.058540 1.815104 156 150 140
-0.742029 0.058581 1.816396 156 150 140
-0.739301 0.058623 1.817690 153 147 137
-0.736273 0.058641 1.818254 151 145 135
-0.733493 0.058679 1.819440 148 142 132
-0.730821 0.058727 1.820905 145 136 125
-0.727792 0.058746 1.821490 141 132 121
-0.724528 0.058746 1.821490 135 129 117
-0.721633 0.058776 1.822420 132 126 114
-0.718624 0.058797 1.823071 130 125 113
-0.715602 0.058817 1.823694 127 122 110
-0.712673 0.058845 1.824561 127 122 110
-0.709984 0.058893 1.826053 126 121 109
-0.706781 0.058898 1.826231 123 123 111
-0.703836 0.058926 1.827081 122 122 110
-0.700932 0.058957 1.828044 123 125 110
-0.698182 0.059001 1.829420 124 126 111
-0.695403 0.059044 1.830733 119 125 107
-0.692438 0.059071 1.831568 115 121 103
-1.005795 0.059719 1.754220 160 168 156
-1.000637 0.059599 1.750695 160 168 156
-0.995889 0.059503 1.747868 160 168 156
-0.992568 0.059491 1.747534 160 168 156
-0.989094 0.059471 1.746927 160 168 156
-0.985785 0.059460 1.746612 160 168 156
-0.982642 0.059459 1.746586 160 168 156
-0.979776 0.059475 1.747056 160 168 156
-0.976383 0.059459 1.746586 160 168 156
-0.972825 0.059433 1.745818 160 168 156
-0.969664 0.059431 1.745758 160 168 156
-0.966139 0.059407 1.745041 160 168 156
-0.963394 0.059430 1.745732 160 168 156
-0.960224 0.059428 1.745655 160 168 156
-0.957152 0.059431 1.745758 160 168 156
-0.954043 0.059432 1.745792 161 169 157
-0.950929 0.059433 1.745818 161 169 157
-0.947777 0.059432 1.745775 162 170 158
-0.944626 0.059430 1.745732 164 169 158
-0.941531 0.059432 1.745792 164 169 158
-0.938403 0.059432 1.745792 161 169 157
-0.935659 0.059457 1.746509 160 168 156
-0.932571 0.059459 1.746586 162 167 156
-0.929482 0.059462 1.746663 160 165 154
-0.926357 0.059462 1.746671 161 164 154
-0.923666 0.059490 1.747500 161 164 154
-0.920593 0.059494 1.747611 163 164 154
-0.917843 0.059519 1.748338 164 165 155
-0.914733 0.059520 1.748381 166 165 156
-0.911721 0.059528 1.748612 168 167 158
-0.908913 0.059549 1.749237 167 166 157
-0.906183 0.059576 1.750017 168 167 158
-0.903087 0.059579 1.750095 167 168 158
-0.900308 0.059602 1.750789 167 168 158
-0.897255 0.059608 1.750952 167 168 158
-0.894556 0.059637 1.751811 168 169 159
-0.891855 0.059666 1.752671 170 171 161
-0.888911 0.059680 1.753058 171 172 162
-0.886005 0.059695 1.753522 176 170 163
-0.883270 0.059723 1.754332 178 172 165
-0.880577 0.059753 1.755228 183 173 167
-0.877915 0.059786 1.756195 186 176 170
-0.875354 0.059826 1.757370 187 174 169
-0.872866 0.059872 1.758703 188 175 170
-0.870118 0.059899 1.759517 188 176 171
-0.867380 0.059928 1.760358 188 176 171
-0.864307 0.059934 1.760523 188 178 172
-0.861942 0.059989 1.762138 188 178 172
-0.859230 0.060020 1.763052 186 180 173
-0.856494 0.060049 1.763922 186 180 173
-0.854050 0.060100 1.765404 188 181 174
-0.851472 0.060141 1.766618 188 181 174
-0.849277 0.060210 1.768638 192 180 175
-0.846737 0.060255 1.769953 193 181 176
-0.843733 0.060267 1.770304 191 179 174
-0.841228 0.060314 1.771709 189 177 172
-0.838549 0.060350 1.772756 191 179 174
-0.835750 0.060377 1.773556 192 180 175
-0.833358 0.060434 1.775231 192 180 175
-0.830743 0.060476 1.776441 193 181 176
-0.828149 0.060519 1.777705 194 182 177
-0.825539 0.060561 1.778945 195 183 178
-0.822926 0.060603 1.780186 196 183 178
-0.820349 0.060648 1.781518 196 183 178
-0.817973 0.060709 1.783296 196 184 179
-0.815185 0.060739 1.784187 197 185 180
-0.812800 0.060800 1.785971 199 187 182
-0.809782 0.060814 1.786373 199 187 182
-0.806803 0.060830 1.786865 199 187 182
-0.804125 0.060870 1.788028 199 187 182
-0.801230 0.060893 1.788717 200 188 183
-0.798797 0.060952 1.790447 200 188 183
-0.795788 0.060968 1.790896 199 186 181
-0.793136 0.061010 1.792154 198 185 180
-0.790480 0.061053 1.793414 194 181 176
-0.787821 0.061096 1.794676 185 172 167
-0.785158 0.061139 1.795939 184 168 164
-0.782687 0.061198 1.797656 178 162 158
-0.779894 0.061231 1.798643 175 162 157
-0.777811 0.061321 1.801282 175 162 157
-0.775002 0.061354 1.802255 173 162 154
-0.772209 0.061389 1.803274 171 160 152
-0.769507 0.061431 1.804513 172 160 150
-0.766800 0.061473 1.805753 170 158 148
-0.763997 0.061508 1.806776 169 157 152
-0.761403 0.061560 1.808304 168 156 151
-0.758667 0.061601 1.809504 164 157 150
-0.755803 0.061632 1.810412 163 156 149
-0.752907 0.061660 1.811247 162 156 146
-0.749837 0.061675 1.811670 161 155 145
-0.747106 0.061717 1.812920 160 154 144
-0.744035 0.061732 1.813353 159 153 143
-0.741313 0.061776 1.814643 160 154 144
-0.738620 0.061823 1.816017 158 152 142
-0.735846 0.061863 1.817200 157 151 141
-0.732851 0.061885 1.817847 156 150 140
-0.730311 0.061946 1.819635 154 145 134
-0.727254 0.061963 1.820145 148 139 128
-0.724159 0.061978 1.820562 139 133 121
-0.721265 0.062009 1.821490 135 129 117
-0.718257 0.062031 1.822141 133 128 116
-0.715467 0.062072 1.823350 130 125 113
-0.712382 0.062088 1.823815 127 122 110
-0.709621 0.062133 1.825120 126 121 109
-0.706485 0.062144 1.825465 122 122 110
-0.703703 0.062188 1.826735 122 122 110
-0.700599 0.062203 1.827174 121 123 108
-0.698003 0.062263 1.828952 121 123 108
-0.695082 0.062295 1.829889 116 122 104
-0.692264 0.062337 1.831108 114 120 102
-0.689231 0.062359 1.831766 112 121 102
-0.686016 0.062365 1.831944 110 119 100
-1.006522 0.062908 1.755487 153 167 153
-1.001226 0.062773 1.751725 153 167 153
-0.996475 0.062671 1.748895 153 167 153
-0.993147 0.062659 1.748552 153 167 153
-0.989626 0.062635 1.747868 153 167 153
-0.986446 0.062632 1.747782 153 167 153
-0.983218 0.062625 1.747611 153 167 153
-0.980303 0.062639 1.747996 153 167 153
-0.976908 0.062622 1.747526 154 166 153
-0.973348 0.062595 1.746757 154 166 153
-0.970171 0.062592 1.746671 154 166 153
-0.967042 0.062592 1.746671 154 166 153
-0.963936 0.062593 1.746714 154 166 153
-0.960782 0.062592 1.746671 154 166 153
-0.957358 0.062572 1.746133 154 168 154
-0.954523 0.062592 1.746671 154 168 154
-0.951394 0.062592 1.746671 158 167 155
-0.948264 0.062592 1.746671 158 167 155
-0.945176 0.062594 1.746748 159 168 156
-0.942051 0.062595 1.746757 159 168 156
-0.939335 0.062622 1.747526 158 167 155
-0.936204 0.062622 1.747526 158 167 155
-0.933072 0.062622 1.747526 156 165 153
-0.929941 0.062622 1.747526 155 164 152
-0.926810 0.062622 1.747526 158 163 152
-0.924009 0.062645 1.748150 157 162 151
-0.921084 0.062659 1.748544 158 161 151
-0.918113 0.062670 1.748852 159 162 152
-0.915181 0.062684 1.749237 161 164 154
-0.912463 0.062712 1.750034 162 165 155
-0.909358 0.062714 1.750095 164 165 155
-0.906627 0.062742 1.750875 165 166 156
-0.903729 0.062759 1.751339 164 165 155
-0.900750 0.062770 1.751648 164 165 155
-0.897695 0.062776 1.751811 165 166 156
-0.894995 0.062807 1.752671 167 168 158
-0.891899 0.062810 1.752757 166 169 159
-0.889151 0.062838 1.753531 167 170 160
-0.886400 0.062865 1.754306 174 171 163
-0.883735 0.062899 1.755254 175 172 164
-0.880893 0.062921 1.755858 179 172 165
-0.878347 0.062964 1.757059 180 173 166
-0.875785 0.063006 1.758235 182 172 166
-0.872871 0.063023 1.758711 184 174 168
-0.870161 0.063055 1.759604 184 174 168
-0.867452 0.063087 1.760506 183 173 167
-0.865078 0.063144 1.762095 183 176 169
-0.862176 0.063163 1.762617 183 176 169
-0.859612 0.063207 1.763835 184 177 170
-0.856917 0.063241 1.764794 185 178 171
-0.854164 0.063271 1.765640 184 178 171
-0.851856 0.063335 1.767413 183 177 170
-0.849319 0.063382 1.768726 188 178 172
-0.846775 0.063429 1.770032 188 178 172
-0.844139 0.063469 1.771156 186 176 170
-0.841299 0.063494 1.771858 186 176 170
-0.838890 0.063552 1.773477 186 176 170
-0.835957 0.063571 1.773997 186 176 170
-0.833395 0.063618 1.775311 188 178 172
-0.831016 0.063679 1.777024 189 179 173
-0.828149 0.063704 1.777705 190 180 174
-0.825576 0.063751 1.779024 191 181 175
-0.823110 0.063807 1.780585 189 182 175
-0.820312 0.063838 1.781438 189 182 175
-0.817944 0.063902 1.783234 191 181 175
-0.815429 0.063955 1.784722 191 181 175
-0.812763 0.063997 1.785891 193 181 176
-0.809600 0.064000 1.785971 194 182 177
-0.806763 0.064029 1.786775 194 182 177
-0.803976 0.064062 1.787696 197 185 180
-0.801081 0.064087 1.788386 199 187 182
-0.798433 0.064131 1.789631 199 187 182
-0.795768 0.064175 1.790851 199 186 181
-0.792814 0.064195 1.791426 198 185 180
-0.790362 0.064257 1.793144 195 183 175
-0.787544 0.064289 1.794045 188 176 168
-0.784799 0.064328 1.795118 185 169 165
-0.782274 0.064385 1.796707 180 164 160
-0.779820 0.064448 1.798471 178 162 158
-0.777133 0.064492 1.799712 177 161 157
-0.774572 0.064548 1.801255 174 161 156
-0.772096 0.064611 1.803010 174 161 156
-0.769254 0.064643 1.803920 173 161 153
-0.766409 0.064676 1.804832 172 160 152
-0.763573 0.064710 1.805772 170 161 152
-0.760991 0.064765 1.807325 170 161 152
-0.757933 0.064781 1.807755 168 158 152
-0.755210 0.064825 1.808991 167 157 151
-0.752175 0.064843 1.809486 166 156 150
-0.749418 0.064885 1.810660 166 156 150
-0.746450 0.064909 1.811330 164 155 146
-0.743925 0.064972 1.813086 165 156 147
-0.741068 0.065006 1.814044 165 156 147
-0.738208 0.065040 1.815002 164 155 146
-0.735307 0.065071 1.815869 164 155 144
-0.732440 0.065106 1.816830 166 157 146
-0.729902 0.065170 1.818615 162 151 143
-0.726680 0.065173 1.818708 156 145 137
-0.723790 0.065206 1.819635 147 141 131
-0.720996 0.065249 1.820812 143 137 127
-0.718001 0.065273 1.821490 141 132 121
-0.715135 0.065309 1.822503 138 129 118
-0.712200 0.065339 1.823350 132 126 114
-0.709259 0.065369 1.824188 128 122 110
-0.706135 0.065383 1.824561 122 122 110
-0.703369 0.065430 1.825867 122 122 110
-0.700595 0.065476 1.827165 121 123 110
-0.697824 0.065523 1.828484 119 121 108
-0.695078 0.065573 1.829879 116 120 103
-0.692133 0.065605 1.830761 116 120 103
-0.689100 0.065629 1.831418 112 122 101
-0.685980 0.065644 1.831850 111 121 100
-0.683017 0.065675 1.832705 110 120 99
-0.680079 0.065708 1.833637 111 121 100
-0.677468 0.065774 1.835465 105 121 98
-1.007225 0.066099 1.756713 150 164 150
-1.002125 0.065971 1.753299 150 164 150
-0.997061 0.065844 1.749923 150 164 150
-0.993765 0.065833 1.749640 150 164 150
-0.990445 0.065821 1.749315 150 164 150
-0.986929 0.065795 1.748638 150 164 150
-0.983652 0.065786 1.748381 150 164 150
-0.980591 0.065790 1.748510 150 164 150
-0.977386 0.065786 1.748381 151 163 150
-0.973877 0.065760 1.747705 151 163 150
-0.970689 0.065756 1.747603 151 163 150
-0.967515 0.065753 1.747526 151 163 150
-0.964384 0.065753 1.747526 151 163 150
-0.961253 0.065753 1.747526 151 163 150
-0.958121 0.065753 1.747526 151 165 151
-0.955032 0.065756 1.747603 151 165 151
-0.951859 0.065753 1.747526 156 165 153
-0.948728 0.065753 1.747526 156 165 153
-0.945597 0.065753 1.747526 157 166 154
-0.942466 0.065753 1.747526 158 167 155
-0.939473 0.065763 1.747782 158 167 155
-0.936341 0.065763 1.747782 158 167 155
-0.933369 0.065774 1.748082 156 165 153
-0.930397 0.065786 1.748381 155 164 152
-0.927400 0.065795 1.748638 158 163 152
-0.924489 0.065811 1.749058 158 163 152
-0.921617 0.065830 1.749555 159 162 152
-0.918450 0.065828 1.749494 159 162 152
-0.915630 0.065850 1.750095 160 163 153
-0.912494 0.065850 1.750095 161 164 154
-0.909492 0.065860 1.750352 163 164 154
-0.906667 0.065882 1.750952 164 165 155
-0.903529 0.065882 1.750952 163 164 154
-0.900525 0.065892 1.751210 163 164 154
-0.897827 0.065924 1.752069 164 165 155
-0.894995 0.065947 1.752671 165 166 156
-0.892293 0.065979 1.753531 164 167 157
-0.889369 0.065996 1.753961 166 169 159
-0.886444 0.066012 1.754392 171 168 160
-0.883735 0.066044 1.755254 172 169 161
-0.880984 0.066074 1.756040 176 169 162
-0.878321 0.066110 1.757007 177 170 163
-0.875655 0.066147 1.757975 179 169 163
-0.872987 0.066183 1.758945 179 169 163
-0.870276 0.066217 1.759838 180 170 164
-0.867722 0.066262 1.761052 181 171 165
-0.864852 0.066284 1.761634 180 173 166
-0.862240 0.066326 1.762747 180 173 166
-0.859625 0.066368 1.763862 180 173 166
-0.857044 0.066413 1.765056 181 174 167
-0.854266 0.066443 1.765849 181 175 168
-0.851856 0.066502 1.767413 181 175 168
-0.849319 0.066551 1.768726 184 174 168
-0.846779 0.066601 1.770041 184 174 168
-0.844114 0.066641 1.771103 183 173 167
-0.841270 0.066667 1.771797 182 172 166
-0.838553 0.066703 1.772764 184 174 168
-0.835957 0.066749 1.773997 184 174 168
-0.833358 0.066796 1.775231 186 176 170
-0.830755 0.066842 1.776467 186 176 170
-0.828149 0.066889 1.777705 187 177 171
-0.825498 0.066932 1.778856 187 177 171
-0.822926 0.066982 1.780186 185 178 171
-0.820308 0.067029 1.781429 186 179 172
-0.817565 0.067066 1.782407 188 178 172
-0.815063 0.067123 1.783920 189 179 173
-0.812313 0.067160 1.784900 190 178 173
-0.809337 0.067178 1.785391 191 179 174
-0.806400 0.067200 1.785971 190 178 173
-0.803602 0.067234 1.786865 193 181 176
-0.800681 0.067257 1.787491 194 182 177
-0.798025 0.067303 1.788717 195 183 178
-0.795330 0.067346 1.789864 194 181 176
-0.792631 0.067390 1.791013 194 181 176
-0.790084 0.067446 1.792514 192 180 172
-0.787149 0.067470 1.793144 188 176 168
-0.784751 0.067540 1.795009 185 169 165
-0.781901 0.067572 1.795849 183 167 163
-0.779321 0.067627 1.797321 182 166 162
-0.776719 0.067681 1.798751 180 164 160
-0.773995 0.067725 1.799912 177 164 159
-0.771357 0.067776 1.801282 175 162 157
-0.768517 0.067810 1.802191 176 164 156
-0.766022 0.067875 1.803920 176 164 156
-0.763133 0.067906 1.804732 176 167 158
-0.760329 0.067944 1.805753 175 166 157
-0.757538 0.067984 1.806813 173 163 157
-0.754656 0.068016 1.807663 170 160 154
-0.751683 0.068040 1.808304 168 158 152
-0.748857 0.068078 1.809302 168 158 152
-0.746038 0.068117 1.810329 168 159 150
-0.743231 0.068157 1.811394 166 157 148
-0.740466 0.068201 1.812571 168 159 150
-0.737698 0.068245 1.813749 167 158 149
-0.734698 0.068268 1.814366 167 158 147
-0.731968 0.068317 1.815657 170 161 150
-0.729196 0.068362 1.816858 169 158 150
-0.726310 0.068397 1.817783 163 152 144
-0.723385 0.068428 1.818615 155 149 139
-0.720530 0.068467 1.819635 152 146 136
-0.717635 0.068502 1.820562 150 141 130
-0.714737 0.068536 1.821490 145 136 125
-0.711655 0.068554 1.821955 138 132 120
-0.708933 0.068606 1.823350 133 127 115
-0.705850 0.068624 1.823825 127 127 115
-0.703009 0.068666 1.824934 123 123 111
-0.700240 0.068715 1.826240 121 123 110
-0.697592 0.068777 1.827875 121 123 110
-0.694715 0.068816 1.828924 116 120 103
-0.691803 0.068852 1.829889 116 120 103
-0.688878 0.068888 1.830827 112 122 101
-0.685949 0.068923 1.831766 111 121 100
-0.682842 0.068941 1.832235 111 121 100
-0.679733 0.068958 1.832705 111 121 100
-0.676974 0.069012 1.834126 107 123 100
-0.674100 0.069054 1.835248 105 121 98
-0.671512 0.069126 1.837164 99 123 101
-0.668485 0.069154 1.837892 98 122 100
-1.006759 0.069215 1.755901 142 160 145
-1.002652 0.069148 1.754220 142 160 145
-0.997892 0.069037 1.751382 142 160 145
-0.994559 0.069023 1.751038 142 160 145
-0.991202 0.069008 1.750652 142 160 145
-0.987413 0.068962 1.749494 142 160 145
-0.984133 0.068952 1.749237 142 160 145
-0.980999 0.068952 1.749237 142 160 145
-0.977865 0.068952 1.749237 142 160 145
-0.974421 0.068930 1.748681 142 160 145
-0.971192 0.068923 1.748510 142 160 145
-0.967988 0.068918 1.748381 142 160 145
-0.964856 0.068918 1.748381 142 160 145
-0.961723 0.068918 1.748381 143 161 146
-0.958426 0.068906 1.748082 144 162 147
-0.955458 0.068918 1.748381 145 163 148
-0.952325 0.068918 1.748381 149 164 150
-0.948960 0.068901 1.747953 150 165 151
-0.946060 0.068918 1.748381 151 166 152
-0.942927 0.068918 1.748381 151 166 152
-0.939795 0.068918 1.748381 152 166 152
-0.936685 0.068920 1.748424 152 166 152
-0.933986 0.068952 1.749237 152 164 151
-0.930852 0.068952 1.749237 152 164 151
-0.927718 0.068952 1.749237 152 164 151
-0.924969 0.068981 1.749966 152 164 151
-0.921924 0.068987 1.750137 154 163 151
-0.918765 0.068986 1.750095 155 164 152
-0.915854 0.069003 1.750523 159 164 153
-0.912785 0.069008 1.750652 159 164 153
-0.909804 0.069020 1.750952 160 163 153
-0.906689 0.069021 1.750995 160 163 153
-0.903751 0.069037 1.751382 159 162 152
-0.900812 0.069052 1.751768 159 162 152
-0.897761 0.069059 1.751940 158 163 152
-0.895149 0.069099 1.752972 159 164 153
-0.892314 0.069123 1.753574 159 167 155
-0.889478 0.069147 1.754177 161 169 157
-0.886444 0.069155 1.754392 166 167 157
-0.883735 0.069189 1.755254 166 167 157
-0.880958 0.069218 1.755988 171 165 158
-0.878351 0.069261 1.757068 172 166 159
-0.875806 0.069308 1.758278 172 166 159
-0.873257 0.069356 1.759491 172 166 159
-0.870276 0.069370 1.759838 175 168 161
-0.867722 0.069418 1.761052 175 168 161
-0.865121 0.069462 1.762182 172 169 161
-0.862176 0.069479 1.762617 172 169 161
-0.859633 0.069529 1.763879 172 171 162
-0.856981 0.069570 1.764925 173 172 163
-0.854473 0.069624 1.766277 175 172 164
-0.851898 0.069672 1.767501 175 172 164
-0.849530 0.069737 1.769164 178 171 164
-0.846758 0.069770 1.769997 178 171 164
-0.843879 0.069795 1.770611 177 170 163
-0.841416 0.069853 1.772105 176 169 162
-0.838740 0.069895 1.773160 177 170 163
-0.835957 0.069928 1.773997 177 170 163
-0.833358 0.069977 1.775231 178 172 165
-0.830755 0.070025 1.776467 178 172 165
-0.827861 0.070050 1.777086 179 173 166
-0.825128 0.070088 1.778059 180 174 167
-0.822618 0.070146 1.779521 181 175 168
-0.819940 0.070189 1.780630 181 175 168
-0.817279 0.070235 1.781784 182 175 168
-0.814717 0.070289 1.783163 183 176 169
-0.812008 0.070331 1.784232 183 176 169
-0.808993 0.070347 1.784633 184 177 170
-0.805997 0.070365 1.785079 184 177 170
-0.803260 0.070405 1.786105 185 178 171
-0.800340 0.070430 1.786731 188 178 172
-0.797638 0.070474 1.787849 188 178 172
-0.794991 0.070523 1.789102 189 177 172
-0.792341 0.070573 1.790358 190 178 173
-0.789688 0.070622 1.791615 189 178 168
-0.786892 0.070660 1.792559 186 175 165
-0.784152 0.070702 1.793639 188 173 166
-0.781409 0.070745 1.794721 187 172 165
-0.778644 0.070786 1.795758 186 171 164
-0.776304 0.070866 1.797792 186 171 164
-0.773687 0.070921 1.799195 183 171 163
-0.770968 0.070968 1.800374 182 170 162
-0.768226 0.071012 1.801509 183 171 163
-0.765461 0.071055 1.802600 182 170 162
-0.762559 0.071086 1.803374 182 170 162
-0.759865 0.071136 1.804649 180 168 160
-0.756956 0.071167 1.805425 178 166 158
-0.753988 0.071192 1.806064 176 164 156
-0.751208 0.071235 1.807160 172 162 156
-0.748235 0.071260 1.807800 171 161 155
-0.745449 0.071304 1.808899 171 161 155
-0.742659 0.071347 1.809999 169 159 153
-0.739866 0.071391 1.811100 171 159 154
-0.737069 0.071434 1.812203 170 158 153
-0.734213 0.071472 1.813169 170 161 152
-0.731596 0.071534 1.814735 173 164 155
-0.728807 0.071579 1.815888 172 163 152
-0.725664 0.071590 1.816165 166 157 146
-0.722833 0.071632 1.817228 159 153 143
-0.720035 0.071678 1.818384 155 149 139
-0.717032 0.071703 1.819032 156 145 137
-0.714373 0.071764 1.820562 152 141 133
-0.711383 0.071791 1.821258 146 137 126
-0.708734 0.071853 1.822838 141 132 121
-0.705720 0.071879 1.823490 135 129 117
-0.702884 0.071923 1.824607 130 124 112
-0.699883 0.071951 1.825307 126 121 111
-0.697200 0.072011 1.826847 126 121 111
-0.694353 0.072055 1.827969 122 120 109
-0.691502 0.072100 1.829092 122 120 109
-0.688525 0.072131 1.829889 114 123 104
-0.685632 0.072172 1.830921 113 122 103
-0.682667 0.072205 1.831766 112 121 104
-0.679733 0.072242 1.832705 112 121 104
-0.676849 0.072285 1.833787 109 122 104
-0.674100 0.072342 1.835248 108 121 103
-0.671277 0.072393 1.836522 105 124 104
-0.668399 0.072437 1.837655 103 122 102
-0.665671 0.072499 1.839217 100 121 100
-1.007527 0.072416 1.757240 139 157 142
-1.003145 0.072327 1.755082 139 157 142
-0.998381 0.072210 1.752241 139 157 142
-0.995046 0.072196 1.751897 139 157 142
-0.991475 0.072164 1.751133 139 157 142
-0.987896 0.072132 1.750352 139 157 142
-0.984615 0.072122 1.750095 139 157 142
-0.981720 0.072139 1.750523 139 157 142
-0.978344 0.072122 1.750095 139 157 142
-0.974965 0.072104 1.749657 139 157 142
-0.971696 0.072094 1.749417 139 157 142
-0.968462 0.072086 1.749237 139 157 142
-0.965328 0.072086 1.749237 139 157 142
-0.962194 0.072086 1.749237 140 158 143
-0.959060 0.072086 1.749237 141 159 144
-0.956253 0.072111 1.749837 142 160 145
-0.952824 0.072089 1.749297 146 161 147
-0.949588 0.072081 1.749109 147 162 148
-0.946092 0.072053 1.748441 148 163 149
-0.943389 0.072086 1.749237 150 165 151
-0.940255 0.072086 1.749237 150 164 150
-0.937153 0.072089 1.749297 150 164 150
-0.934444 0.072122 1.750095 151 163 150
-0.931308 0.072122 1.750095 151 163 150
-0.928173 0.072122 1.750095 151 163 150
-0.925395 0.072149 1.750772 151 163 150
-0.922520 0.072170 1.751270 154 163 151
-0.919216 0.072157 1.750952 155 164 152
-0.916361 0.072179 1.751493 158 163 152
-0.913169 0.072175 1.751390 160 165 154
-0.910250 0.072192 1.751811 160 163 153
-0.907111 0.072192 1.751811 161 164 154
-0.904128 0.072205 1.752112 161 164 154
-0.900865 0.072195 1.751871 160 163 153
-0.898135 0.072228 1.752671 160 165 154
-0.895434 0.072263 1.753531 160 165 154
-0.892775 0.072302 1.754478 158 166 154
-0.890025 0.072334 1.755254 159 167 155
-0.886880 0.072334 1.755254 164 165 155
-0.884169 0.072370 1.756117 165 166 156
-0.881417 0.072402 1.756903 168 162 155
-0.878771 0.072443 1.757906 168 162 155
-0.876237 0.072494 1.759144 168 162 155
-0.873417 0.072522 1.759812 168 162 155
-0.870487 0.072541 1.760263 170 163 156
-0.867850 0.072584 1.761313 170 163 156
-0.865151 0.072622 1.762243 167 164 156
-0.862389 0.072655 1.763052 168 165 157
-0.859922 0.072714 1.764471 169 168 159
-0.857341 0.072763 1.765666 170 169 160
-0.854599 0.072799 1.766539 171 168 160
-0.851898 0.072839 1.767501 170 167 159
-0.849740 0.072925 1.769602 174 167 160
-0.847157 0.072976 1.770831 174 167 160
-0.844114 0.072987 1.771103 173 166 159
-0.841562 0.073041 1.772412 172 165 158
-0.838665 0.073066 1.773002 172 165 158
-0.836020 0.073112 1.774129 173 166 159
-0.833358 0.073157 1.775231 172 166 159
-0.830632 0.073197 1.776202 173 167 160
-0.827976 0.073244 1.777333 174 168 161
-0.825128 0.073274 1.778059 176 170 163
-0.822577 0.073331 1.779432 177 171 164
-0.819940 0.073380 1.780630 177 171 164
-0.817279 0.073427 1.781784 179 172 165
-0.814656 0.073479 1.783029 179 172 165
-0.812110 0.073537 1.784454 180 173 166
-0.809135 0.073558 1.784945 180 173 166
-0.805997 0.073563 1.785079 180 173 166
-0.803236 0.073603 1.786052 182 175 168
-0.800400 0.073637 1.786865 185 175 169
-0.797610 0.073675 1.787786 185 175 169
-0.794713 0.073703 1.788475 187 175 170
-0.791956 0.073745 1.789488 187 175 170
-0.789292 0.073796 1.790717 187 176 166
-0.786671 0.073851 1.792055 186 175 165
-0.783975 0.073899 1.793234 189 174 167
-0.781311 0.073951 1.794495 189 174 167
-0.778644 0.074003 1.795758 188 173 166
-0.775972 0.074055 1.797023 189 174 167
-0.773141 0.074093 1.797928 187 175 167
-0.770591 0.074157 1.799495 189 177 169
-0.767800 0.074199 1.800511 188 176 168
-0.765006 0.074241 1.801527 186 174 166
-0.762093 0.074272 1.802273 185 173 165
-0.759327 0.074317 1.803374 182 170 162
-0.756517 0.074358 1.804376 180 168 160
-0.753893 0.074419 1.805835 179 167 159
-0.750760 0.074429 1.806082 176 166 160
-0.748178 0.074494 1.807663 175 165 159
-0.745019 0.074502 1.807856 173 163 157
-0.742114 0.074535 1.808670 173 163 157
-0.739453 0.074594 1.810091 174 162 157
-0.736688 0.074642 1.811266 173 161 156
-0.733692 0.074668 1.811881 172 163 154
-0.731042 0.074729 1.813362 173 164 155
-0.728222 0.074773 1.814431 172 163 152
-0.725259 0.074802 1.815150 168 159 148
-0.722318 0.074835 1.815934 163 157 147
-0.719540 0.074884 1.817135 159 153 143
-0.716795 0.074938 1.818430 159 148 140
-0.713780 0.074963 1.819051 158 147 139
-0.711111 0.075025 1.820562 152 143 132
-0.708308 0.075074 1.821741 147 138 127
-0.705339 0.075105 1.822503 140 134 122
-0.702431 0.075144 1.823434 136 130 118
-0.699536 0.075184 1.824402 131 126 116
-0.696986 0.075261 1.826287 127 122 112
-0.694111 0.075305 1.827333 126 124 113
-0.691276 0.075352 1.828493 123 121 110
-0.688278 0.075383 1.829233 116 125 106
-0.685351 0.075421 1.830170 114 123 104
-0.682247 0.075441 1.830639 112 121 104
-0.679360 0.075484 1.831700 114 123 106
-0.676554 0.075538 1.832987 110 123 105
-0.673930 0.075612 1.834786 110 123 105
-0.671260 0.075681 1.836474 105 124 104
-0.668313 0.075720 1.837419 104 123 103
-0.665363 0.075759 1.838365 103 124 103
-0.662854 0.075849 1.840543 102 123 102
-1.008306 0.075623 1.758599 134 149 135
-1.003633 0.075508 1.755936 134 149 135
-0.998822 0.075383 1.753015 134 149 135
-0.995535 0.075372 1.752757 134 149 135
-0.991990 0.075341 1.752043 134 149 135
-0.988366 0.075304 1.751184 134 149 135
-0.985098 0.075294 1.750952 131 151 135
-0.982394 0.075327 1.751725 131 151 135
-0.978824 0.075294 1.750952 131 151 135
-0.975510 0.075280 1.750635 131 151 135
-0.972168 0.075265 1.750266 131 151 135
-0.968894 0.075254 1.750017 131 151 135
-0.965801 0.075257 1.750095 131 152 131
-0.962665 0.075257 1.750095 133 154 133
-0.959657 0.075267 1.750326 135 156 135
-0.956816 0.075290 1.750867 136 157 136
-0.953679 0.075290 1.750867 140 161 142
-0.950123 0.075257 1.750095 142 163 144
-0.946945 0.075254 1.750017 143 164 145
-0.943851 0.075257 1.750095 144 165 146
-0.940715 0.075257 1.750095 146 165 147
-0.937998 0.075291 1.750875 146 165 147
-0.934879 0.075292 1.750910 148 163 149
-0.931760 0.075294 1.750944 148 163 149
-0.928628 0.075294 1.750952 149 163 149
-0.925930 0.075330 1.751785 150 164 150
-0.923213 0.075364 1.752585 152 164 151
-0.920073 0.075364 1.752585 152 164 151
-0.916933 0.075364 1.752585 155 164 152
-0.913806 0.075365 1.752610 156 165 153
-0.910652 0.075364 1.752585 157 165 153
-0.907556 0.075368 1.752671 158 166 154
-0.904416 0.075368 1.752671 157 165 153
-0.901276 0.075368 1.752671 157 165 153
-0.898695 0.075415 1.753763 156 165 153
-0.895861 0.075441 1.754366 156 165 153
-0.892775 0.075446 1.754478 156 165 153
-0.890025 0.075479 1.755254 157 166 154
-0.887233 0.075509 1.755953 160 165 154
-0.884561 0.075550 1.756895 159 164 153
-0.881729 0.075577 1.757526 161 162 152
-0.879173 0.075628 1.758711 161 162 152
-0.876432 0.075663 1.759534 163 160 152
-0.873727 0.075702 1.760436 162 159 151
-0.870976 0.075737 1.761252 162 159 151
-0.868120 0.075763 1.761860 163 160 152
-0.865510 0.075811 1.762974 162 163 153
-0.862815 0.075852 1.763922 163 164 154
-0.860079 0.075889 1.764794 162 165 155
-0.857468 0.075938 1.765928 162 165 155
-0.855009 0.076001 1.767387 165 164 155
-0.852315 0.076043 1.768367 165 164 155
-0.849740 0.076096 1.769602 167 164 156
-0.847157 0.076149 1.770831 167 164 156
-0.844151 0.076164 1.771182 167 164 156
-0.841299 0.076193 1.771858 165 162 154
-0.838553 0.076232 1.772764 166 163 155
-0.835957 0.076285 1.773997 168 165 157
-0.833358 0.076338 1.775231 167 166 157
-0.830603 0.076377 1.776140 168 167 158
-0.827737 0.076407 1.776821 167 166 157
-0.825091 0.076456 1.777979 167 166 157
-0.822516 0.076513 1.779299 168 167 158
-0.819899 0.076566 1.780541 169 168 159
-0.817169 0.076610 1.781544 173 167 160
-0.814400 0.076649 1.782469 173 167 160
-0.811660 0.076692 1.783465 172 169 161
-0.808791 0.076723 1.784187 173 170 162
-0.805997 0.076762 1.785079 175 169 162
-0.802947 0.076776 1.785409 177 171 164
-0.800252 0.076824 1.786534 179 172 165
-0.797239 0.076842 1.786954 180 173 166
-0.794394 0.076877 1.787759 180 173 166
-0.791587 0.076915 1.788654 180 173 166
-0.789280 0.077003 1.790690 183 173 167
-0.786359 0.077031 1.791345 183 173 167
-0.783617 0.077077 1.792415 185 173 165
-0.780919 0.077128 1.793594 187 175 167
-0.778256 0.077182 1.794865 185 174 166
-0.775477 0.077226 1.795876 185 174 166
-0.772908 0.077291 1.797385 188 175 170
-0.770191 0.077341 1.798561 187 174 169
-0.767181 0.077363 1.799060 189 173 170
-0.764481 0.077416 1.800292 189 173 170
-0.761674 0.077458 1.801282 185 172 167
-0.758726 0.077487 1.801946 184 171 166
-0.755986 0.077537 1.803110 182 171 163
-0.753341 0.077597 1.804513 180 169 161
-0.750312 0.077618 1.805005 178 169 160
-0.747433 0.077655 1.805863 177 168 159
-0.744487 0.077686 1.806566 176 166 160
-0.741738 0.077737 1.807755 177 167 161
-0.739023 0.077792 1.809037 176 166 160
-0.736303 0.077847 1.810320 175 165 159
-0.733234 0.077866 1.810752 175 163 158
-0.730494 0.077919 1.812001 175 163 158
-0.727753 0.077973 1.813261 171 164 157
-0.724835 0.078009 1.814090 168 161 154
-0.721915 0.078045 1.814919 166 156 150
-0.718834 0.078063 1.815353 163 153 147
-0.716102 0.078120 1.816673 162 150 145
-0.713646 0.078208 1.818708 160 148 143
-0.710586 0.078230 1.819218 157 146 138
-0.707849 0.078287 1.820562 153 142 134
-0.704957 0.078329 1.821518 146 140 128
-0.702066 0.078370 1.822485 141 135 123
-0.699200 0.078415 1.823527 140 131 120
-0.696754 0.078508 1.825680 137 128 117
-0.693692 0.078531 1.826231 130 128 117
-0.690872 0.078583 1.827427 130 128 117
-0.687855 0.078612 1.828109 126 128 115
-0.684930 0.078652 1.829046 121 123 110
-0.681967 0.078689 1.829889 117 121 106
-0.679005 0.078725 1.830742 115 119 104
-0.676449 0.078810 1.832705 109 123 101
-0.673753 0.078878 1.834305 110 124 102
-0.670915 0.078931 1.835531 107 123 100
-0.667815 0.078953 1.836049 108 124 101
-0.665051 0.079016 1.837504 106 122 101
-0.662512 0.079106 1.839596 106 122 101
-0.659818 0.079178 1.841274 102 121 101
-0.657237 0.079265 1.843289 103 122 102
-0.654562 0.079341 1.845059 100 121 100
-0.651879 0.079417 1.846824 99 120 99
-1.008504 0.078789 1.758945 129 144 130
-1.004136 0.078694 1.756817 129 144 130
-0.999411 0.078570 1.754048 129 144 130
-0.996072 0.078555 1.753703 129 144 130
-0.992360 0.078510 1.752696 129 144 130
-0.988865 0.078481 1.752069 129 144 130
-0.986021 0.078505 1.752593 126 146 130
-0.982683 0.078489 1.752241 126 146 130
-0.979304 0.078470 1.751811 126 146 130
-0.976021 0.078458 1.751553 126 146 130
-0.972549 0.078431 1.750952 126 146 130
-0.969027 0.078400 1.750257 126 146 130
-0.966275 0.078431 1.750952 126 147 126
-0.963137 0.078431 1.750952 128 149 128
-0.960174 0.078446 1.751270 129 150 129
-0.957036 0.078446 1.751270 131 152 131
-0.954193 0.078470 1.751811 134 155 136
-0.950588 0.078431 1.750952 136 157 138
-0.947451 0.078431 1.750952 137 158 139
-0.944453 0.078443 1.751210 139 160 141
-0.941513 0.078459 1.751579 140 159 141
-0.938499 0.078470 1.751811 140 159 141
-0.935360 0.078470 1.751811 143 158 144
-0.932222 0.078470 1.751811 144 159 145
-0.929097 0.078471 1.751837 146 160 146
-0.926398 0.078508 1.752671 147 161 147
-0.923671 0.078543 1.753453 149 161 148
-0.920163 0.078512 1.752757 149 161 148
-0.916977 0.078508 1.752671 151 160 148
-0.914286 0.078547 1.753531 154 163 151
-0.911144 0.078547 1.753531 155 163 151
-0.908002 0.078547 1.753531 155 163 151
-0.905104 0.078568 1.754004 155 163 151
-0.902121 0.078582 1.754315 155 163 151
-0.899150 0.078597 1.754651 155 164 152
-0.896315 0.078624 1.755254 156 165 153
-0.893209 0.078628 1.755332 156 165 153
-0.890243 0.078643 1.755686 155 164 152
-0.887316 0.078663 1.756117 157 162 151
-0.884617 0.078703 1.757007 158 163 152
-0.881920 0.078743 1.757906 159 160 150
-0.879255 0.078786 1.758876 159 160 150
-0.876691 0.078839 1.760055 161 158 150
-0.874119 0.078892 1.761226 161 158 150
-0.871019 0.078897 1.761339 161 158 150
-0.868578 0.078962 1.762791 162 159 151
-0.865975 0.079012 1.763922 160 161 151
-0.863220 0.079049 1.764750 160 161 151
-0.860504 0.079090 1.765666 159 162 152
-0.857777 0.079131 1.766566 160 163 153
-0.855022 0.079169 1.767413 163 162 153
-0.852319 0.079212 1.768376 164 163 154
-0.850140 0.079304 1.770436 166 163 155
-0.847237 0.079329 1.770998 166 163 155
-0.844444 0.079365 1.771797 165 162 154
-0.841687 0.079404 1.772676 165 162 154
-0.838928 0.079444 1.773556 165 162 154
-0.836165 0.079483 1.774438 165 162 154
-0.833358 0.079519 1.775231 166 165 156
-0.830743 0.079573 1.776441 167 166 157
-0.828120 0.079627 1.777643 166 165 156
-0.825128 0.079646 1.778059 166 165 156
-0.822516 0.079701 1.779299 166 165 156
-0.819863 0.079753 1.780461 166 165 156
-0.816872 0.079773 1.780896 169 163 156
-0.814371 0.079840 1.782407 169 163 156
-0.811623 0.079884 1.783385 167 164 156
-0.808791 0.079920 1.784187 169 166 158
-0.805920 0.079952 1.784909 172 166 159
-0.802907 0.079971 1.785320 173 167 160
-0.799892 0.079989 1.785730 175 168 161
-0.797163 0.080036 1.786784 176 169 162
-0.794374 0.080078 1.787714 178 171 164
-0.791583 0.080120 1.788645 179 172 165
-0.788884 0.080171 1.789793 181 171 165
-0.786213 0.080226 1.791013 182 172 166
-0.783189 0.080245 1.791435 185 173 165
-0.780527 0.080301 1.792694 185 173 165
-0.777861 0.080358 1.793954 185 174 166
-0.775181 0.080413 1.795190 185 174 166
-0.772624 0.080482 1.796725 186 173 168
-0.769769 0.080520 1.797575 184 171 166
-0.766950 0.080562 1.798516 187 171 168
-0.764127 0.080604 1.799458 187 171 168
-0.761263 0.080642 1.800311 183 170 165
-0.758332 0.080674 1.801010 184 171 166
-0.755635 0.080730 1.802273 181 170 162
-0.752922 0.080786 1.803510 180 169 161
-0.749895 0.080808 1.804002 178 169 160
-0.747018 0.080846 1.804859 178 169 160
-0.744073 0.080878 1.805562 177 167 161
-0.741359 0.080934 1.806831 178 168 162
-0.738443 0.080970 1.807618 177 167 161
-0.735591 0.081012 1.808569 177 167 161
-0.732826 0.081065 1.809742 176 164 159
-0.730086 0.081121 1.810990 176 164 159
-0.727015 0.081140 1.811422 170 163 156
-0.724265 0.081196 1.812663 167 160 153
-0.721218 0.081218 1.813169 166 156 150
-0.718444 0.081272 1.814366 162 152 146
-0.716029 0.081367 1.816488 163 151 146
-0.712956 0.081388 1.816950 160 148 143
-0.710369 0.081464 1.818662 159 148 140
-0.707485 0.081507 1.819625 157 146 138
-0.704695 0.081562 1.820840 152 146 134
-0.701933 0.081620 1.822141 147 141 129
-0.699132 0.081674 1.823350 146 137 126
-0.696381 0.081735 1.824701 145 136 125
-0.693625 0.081795 1.826053 136 134 123
-0.690494 0.081812 1.826427 138 136 125
-0.687714 0.081871 1.827735 134 136 123
-0.684895 0.081925 1.828952 129 131 118
-0.681950 0.081965 1.829842 121 125 110
-0.679002 0.082005 1.830733 117 121 106
-0.676425 0.082090 1.832639 111 125 103
-0.673501 0.082134 1.833618 110 124 102
-0.670570 0.082178 1.834588 107 123 100
-0.667780 0.082239 1.835955 108 124 101
-0.664986 0.082300 1.837325 107 123 102
-0.662386 0.082386 1.839245 105 121 100
-0.659668 0.082459 1.840856 103 122 102
-0.656867 0.082521 1.842252 104 123 103
-0.654360 0.082621 1.844488 101 122 101
-0.651543 0.082683 1.845870 101 122 101
-0.648705 0.082743 1.847206 97 122 100
-0.645863 0.082803 1.848545 96 121 99
-0.643316 0.082902 1.850747 92 122 100
-0.640498 0.082966 1.852187 92 122 100
-1.009314 0.082007 1.760358 126 146 130
-1.004626 0.081882 1.757673 126 146 130
-0.999853 0.081749 1.754823 126 146 130
-0.996513 0.081733 1.754478 126 146 130
-0.992979 0.081701 1.753789 126 146 130
-0.989453 0.081669 1.753109 126 146 130
-0.986210 0.081661 1.752928 126 147 126
-0.983238 0.081675 1.753230 126 147 126
-0.979784 0.081649 1.752671 126 147 126
-0.976265 0.081617 1.751991 126 147 126
-0.972792 0.081589 1.751390 126 147 126
-0.969554 0.081581 1.751210 126 147 126
-0.966748 0.081609 1.751811 126 147 126
-0.963312 0.081583 1.751270 127 148 127
-0.960471 0.081609 1.751811 128 149 130
-0.957374 0.081612 1.751888 128 149 130
-0.954334 0.081621 1.752069 130 151 130
-0.951054 0.081609 1.751811 131 152 131
-0.947916 0.081609 1.751811 132 153 132
-0.944777 0.081609 1.751811 133 154 133
-0.941638 0.081609 1.751811 131 155 133
-0.938624 0.081619 1.752043 131 155 133
-0.935429 0.081615 1.751940 135 154 136
-0.932679 0.081649 1.752671 136 155 137
-0.929539 0.081649 1.752671 138 153 139
-0.926494 0.081657 1.752851 139 154 140
-0.923711 0.081689 1.753531 140 155 141
-0.920570 0.081689 1.753531 141 156 142
-0.917428 0.081689 1.753531 145 159 145
-0.914326 0.081692 1.753608 146 160 146
-0.911497 0.081720 1.754211 148 160 147
-0.908448 0.081729 1.754392 149 161 148
-0.905305 0.081729 1.754392 147 161 147
-0.902281 0.081740 1.754625 147 161 147
-0.899499 0.081773 1.755332 148 162 148
-0.896663 0.081801 1.755936 149 163 149
-0.893622 0.081810 1.756143 150 162 149
-0.890593 0.081821 1.756376 151 163 150
-0.887870 0.081860 1.757214 154 162 150
-0.885039 0.081890 1.757846 154 162 150
-0.882233 0.081922 1.758530 155 160 149
-0.879736 0.081983 1.759838 155 160 149
-0.876950 0.082017 1.760575 158 159 149
-0.874278 0.082062 1.761547 158 159 149
-0.871474 0.082095 1.762260 158 159 149
-0.868617 0.082124 1.762869 158 159 149
-0.866018 0.082177 1.764010 156 161 150
-0.863305 0.082220 1.764925 156 161 150
-0.860632 0.082266 1.765928 155 163 151
-0.857981 0.082316 1.766985 156 164 152
-0.855357 0.082368 1.768105 161 162 152
-0.852712 0.082418 1.769191 162 163 153
-0.850224 0.082484 1.770611 160 163 153
-0.847577 0.082536 1.771709 161 164 154
-0.844570 0.082552 1.772061 160 163 153
-0.841687 0.082581 1.772676 159 162 152
-0.839052 0.082634 1.773821 158 161 151
-0.836227 0.082669 1.774570 159 162 152
-0.833400 0.082704 1.775319 162 163 153
-0.830805 0.082762 1.776573 163 164 154
-0.828149 0.082815 1.777705 165 166 156
-0.825099 0.082829 1.777997 164 165 155
-0.822516 0.082889 1.779299 162 165 155
-0.819899 0.082947 1.780541 162 165 155
-0.816872 0.082964 1.780896 164 163 154
-0.814371 0.083034 1.782407 164 163 154
-0.811623 0.083080 1.783385 163 164 154
-0.808791 0.083117 1.784187 164 165 155
-0.805594 0.083117 1.784187 165 164 155
-0.802883 0.083167 1.785266 165 164 155
-0.799916 0.083191 1.785784 167 164 156
-0.796840 0.083204 1.786061 170 167 159
-0.794116 0.083254 1.787133 171 168 160
-0.791298 0.083295 1.788001 172 169 161
-0.788778 0.083367 1.789550 175 168 161
-0.785847 0.083396 1.790178 178 171 164
-0.783149 0.083450 1.791345 180 170 164
-0.780527 0.083513 1.792694 180 170 164
-0.777861 0.083572 1.793954 183 172 164
-0.775075 0.083618 1.794946 182 171 163
-0.772247 0.083660 1.795849 182 170 162
-0.769455 0.083706 1.796842 184 172 164
-0.766718 0.083759 1.797973 183 170 165
-0.763746 0.083787 1.798561 182 169 164
-0.760907 0.083829 1.799467 181 170 162
-0.758252 0.083892 1.800819 181 170 162
-0.755257 0.083917 1.801373 181 170 162
-0.752371 0.083956 1.802191 180 169 161
-0.749520 0.083998 1.803101 181 169 164
-0.746588 0.084031 1.803820 181 169 164
-0.743697 0.084070 1.804649 177 168 159
-0.740950 0.084125 1.805835 179 170 161
-0.738219 0.084183 1.807069 175 168 161
-0.735446 0.084236 1.808212 176 169 162
-0.732354 0.084253 1.808579 177 167 161
-0.729483 0.084296 1.809495 175 165 159
-0.726878 0.084370 1.811082 172 160 155
-0.723732 0.084381 1.811330 169 157 152
-0.720852 0.084424 1.812249 167 155 150
-0.718079 0.084480 1.813445 164 152 147
-0.715338 0.084540 1.814735 163 151 146
-0.712583 0.084599 1.815999 162 150 145
-0.709791 0.084654 1.817181 158 151 144
-0.707092 0.084721 1.818615 157 150 143
-0.704336 0.084781 1.819913 156 147 138
-0.701500 0.084833 1.821017 154 145 136
-0.698776 0.084898 1.822420 152 143 132
-0.695865 0.084941 1.823350 150 141 130
-0.692941 0.084983 1.824253 144 139 127
-0.690142 0.085041 1.825493 142 137 125
-0.687436 0.085111 1.826997 141 136 122
-0.684545 0.085159 1.828016 139 134 120
-0.681618 0.085202 1.828952 133 131 116
-0.678678 0.085245 1.829861 128 126 111
-0.675860 0.085303 1.831108 122 129 109
-0.673062 0.085364 1.832423 119 126 106
-0.670236 0.085422 1.833674 114 124 105
-0.667574 0.085502 1.835389 113 123 104
-0.664668 0.085551 1.836446 111 124 104
-0.661997 0.085632 1.838166 109 122 102
-0.659352 0.085716 1.839975 108 123 102
-0.656529 0.085778 1.841303 106 121 100
-0.654039 0.085884 1.843583 105 121 102
-0.651230 0.085949 1.844983 105 121 102
-0.648604 0.086039 1.846920 102 121 99
-0.645629 0.086084 1.847875 101 120 98
-0.642993 0.086174 1.849818 98 122 100
-0.640166 0.086240 1.851227 97 121 99
-0.637553 0.086335 1.853273 97 122 102
-0.634782 0.086410 1.854880 96 121 101
-1.008991 0.085134 1.759794 124 144 128
-1.004650 0.085033 1.757716 124 144 128
-1.000467 0.084945 1.755901 124 144 128
-0.997247 0.084939 1.755772 124 144 128
-0.993882 0.084920 1.755384 124 144 128
-0.989909 0.084849 1.753919 124 144 128
-0.986767 0.084849 1.753919 124 145 124
-0.983769 0.084862 1.754177 124 145 124
-0.980048 0.084812 1.753144 124 145 124
-0.976811 0.084804 1.752972 124 145 124
-0.973169 0.084760 1.752069 124 145 124
-0.969911 0.084750 1.751854 124 145 124
-0.966985 0.084768 1.752241 124 145 124
-0.963633 0.084749 1.751854 125 146 125
-0.960777 0.084774 1.752370 126 147 128
-0.957802 0.084789 1.752671 126 147 128
-0.954661 0.084789 1.752671 128 149 128
-0.951171 0.084758 1.752026 128 149 128
-0.948381 0.084789 1.752671 129 150 129
-0.945171 0.084783 1.752541 130 151 130
-0.942100 0.084789 1.752671 129 153 131
-0.938960 0.084789 1.752671 129 153 131
-0.936049 0.084810 1.753101 133 152 134
-0.932885 0.084808 1.753057 134 153 135
-0.929607 0.084795 1.752800 136 151 137
-0.926853 0.084831 1.753531 137 152 138
-0.923711 0.084831 1.753531 138 153 139
-0.920682 0.084841 1.753746 138 153 139
-0.917428 0.084831 1.753531 140 154 140
-0.914735 0.084872 1.754392 141 155 141
-0.911748 0.084887 1.754694 142 154 141
-0.908470 0.084874 1.754435 143 155 142
-0.905527 0.084893 1.754823 143 157 143
-0.902582 0.084912 1.755211 143 157 143
-0.899680 0.084935 1.755686 143 157 143
-0.896909 0.084970 1.756420 145 159 145
-0.894048 0.084998 1.756981 148 160 147
-0.890900 0.084998 1.756981 148 160 147
-0.888145 0.085035 1.757759 151 159 147
-0.885323 0.085067 1.758408 151 159 147
-0.882324 0.085081 1.758711 152 157 146
-0.880039 0.085165 1.760445 152 157 146
-0.877426 0.085218 1.761530 155 156 146
-0.874593 0.085249 1.762182 155 156 146
-0.871715 0.085276 1.762747 157 158 148
-0.869007 0.085321 1.763661 157 158 148
-0.866211 0.085357 1.764402 154 159 148
-0.863668 0.085418 1.765666 154 159 148
-0.860930 0.085460 1.766539 153 161 149
-0.858465 0.085530 1.767982 153 161 149
-0.855721 0.085572 1.768858 159 160 150
-0.852932 0.085610 1.769646 160 161 151
-0.850477 0.085682 1.771138 157 160 150
-0.847998 0.085753 1.772588 158 161 151
-0.844864 0.085757 1.772676 158 161 151
-0.841980 0.085787 1.773292 156 159 149
-0.839344 0.085842 1.774438 157 160 150
-0.836373 0.085863 1.774879 158 161 151
-0.833400 0.085885 1.775319 161 162 152
-0.830694 0.085934 1.776335 161 162 152
-0.828149 0.086000 1.777705 162 163 153
-0.825313 0.086036 1.778457 163 164 154
-0.822516 0.086077 1.779299 160 163 153
-0.819940 0.086142 1.780630 160 163 153
-0.817015 0.086170 1.781207 163 162 153
-0.814371 0.086228 1.782407 164 163 154
-0.811623 0.086275 1.783385 163 164 154
-0.808589 0.086292 1.783741 163 164 154
-0.805594 0.086314 1.784187 163 162 153
-0.802799 0.086357 1.785079 163 162 153
-0.799800 0.086378 1.785525 165 162 154
-0.796840 0.086404 1.786061 166 163 155
-0.794196 0.086465 1.787312 168 165 157
-0.791191 0.086486 1.787759 168 165 157
-0.788442 0.086536 1.788789 172 165 158
-0.785709 0.086588 1.789864 174 167 160
-0.782796 0.086621 1.790537 177 167 161
-0.780233 0.086693 1.792019 178 168 162
-0.777471 0.086743 1.793054 179 168 160
-0.774803 0.086804 1.794315 180 169 161
-0.772189 0.086871 1.795713 181 169 161
-0.769243 0.086902 1.796345 182 170 162
-0.766390 0.086943 1.797204 182 169 164
-0.763535 0.086985 1.798064 182 169 164
-0.760524 0.087009 1.798561 181 170 162
-0.757683 0.087053 1.799467 181 170 162
-0.755048 0.087121 1.800874 181 170 162
-0.752182 0.087163 1.801737 180 169 161
-0.749142 0.087185 1.802191 180 168 163
-0.746290 0.087229 1.803101 181 169 164
-0.743378 0.087266 1.803875 179 170 161
-0.740595 0.087319 1.804969 179 170 161
-0.737715 0.087361 1.805835 176 169 162
-0.734851 0.087405 1.806749 176 169 162
-0.732039 0.087456 1.807800 177 167 161
-0.729243 0.087509 1.808899 175 165 159
-0.726609 0.087582 1.810412 174 162 157
-0.723457 0.087593 1.810641 170 158 153
-0.720487 0.087627 1.811330 167 155 150
-0.717970 0.087716 1.813169 166 154 149
-0.715029 0.087754 1.813951 163 151 146
-0.712231 0.087809 1.815104 163 151 146
-0.709484 0.087872 1.816396 158 151 144
-0.706768 0.087939 1.817783 158 151 144
-0.703977 0.087997 1.818986 158 149 140
-0.701272 0.088067 1.820423 156 147 138
-0.698277 0.088100 1.821119 155 146 135
-0.695599 0.088175 1.822652 153 144 133
-0.692757 0.088229 1.823769 148 143 131
-0.690089 0.088305 1.825353 145 140 128
-0.687064 0.088337 1.826007 143 138 124
-0.684212 0.088391 1.827127 142 137 123
-0.681356 0.088445 1.828250 138 136 121
-0.678341 0.088479 1.828952 134 132 117
-0.675687 0.088561 1.830639 126 133 113
-0.673062 0.088647 1.832423 125 132 112
-0.670226 0.088706 1.833646 120 130 111
-0.667369 0.088763 1.834824 118 128 109
-0.664644 0.088839 1.836380 114 127 107
-0.661831 0.088903 1.837703 113 126 106
-0.659114 0.088980 1.839311 109 124 103
-0.656529 0.089077 1.841303 107 122 101
-0.653701 0.089141 1.842632 107 123 104
-0.651206 0.089252 1.844917 105 121 102
-0.648319 0.089309 1.846108 103 122 100
-0.645528 0.089381 1.847589 102 121 99
-0.642833 0.089466 1.849358 97 121 99
-0.640083 0.089545 1.850987 97 121 99
-0.637311 0.089622 1.852571 97 122 102
-0.634568 0.089703 1.854254 97 122 102
-0.631688 0.089766 1.855555 98 123 101
-1.009723 0.088351 1.761070 120 145 125
-1.005482 0.088255 1.759171 120 145 125
-1.001255 0.088161 1.757284 120 145 125
-0.998327 0.088180 1.757673 120 145 125
-0.994683 0.088136 1.756800 120 145 125
-0.990912 0.088081 1.755694 120 145 125
-0.987504 0.088058 1.755228 120 145 125
-0.984301 0.088052 1.755125 120 145 125
-0.981050 0.088043 1.754935 120 145 125
-0.977560 0.088012 1.754315 120 145 125
-0.974082 0.087982 1.753712 119 146 125
-0.970711 0.087961 1.753299 119 146 125
-0.967626 0.087966 1.753402 120 145 125
-0.964428 0.087961 1.753299 120 145 125
-0.961414 0.087973 1.753531 120 145 125
-0.958272 0.087973 1.753531 121 146 126
-0.955473 0.088004 1.754160 122 146 126
-0.951988 0.087973 1.753531 123 147 127
-0.948846 0.087973 1.753531 124 148 128
-0.945565 0.087960 1.753273 124 148 128
-0.942521 0.087969 1.753453 125 150 128
-0.939421 0.087973 1.753531 126 151 129
-0.936279 0.087973 1.753531 128 152 128
-0.933458 0.088003 1.754134 130 154 130
-0.929995 0.087973 1.753531 134 153 135
-0.927308 0.088016 1.754392 134 153 135
-0.924165 0.088016 1.754392 135 154 136
-0.921022 0.088016 1.754392 133 152 134
-0.918032 0.088030 1.754685 133 152 134
-0.915499 0.088089 1.755858 135 154 136
-0.912394 0.088093 1.755936 134 153 135
-0.909341 0.088102 1.756117 135 154 136
-0.906195 0.088102 1.756117 135 154 136
-0.903048 0.088102 1.756117 135 154 136
-0.900251 0.088136 1.756800 138 154 137
-0.897157 0.088142 1.756903 139 155 138
-0.894488 0.088189 1.757846 142 156 142
-0.891339 0.088189 1.757846 141 155 141
-0.888583 0.088228 1.758625 143 155 142
-0.885820 0.088267 1.759396 143 155 142
-0.882850 0.088285 1.759760 145 154 142
-0.880473 0.088363 1.761313 145 154 142
-0.877750 0.088407 1.762182 146 154 142
-0.875297 0.088478 1.763600 147 155 143
